ply
format ascii 1.0
element vertex 1145
property float x
property float y
property float z
property uchar red
property uchar green
property uchar blue
property uchar alpha
end_header
33.660000 20.680000 3.740000 99 100 99 0
33.880000 20.680000 3.740000 98 99 98 0
34.100000 20.680000 3.740000 98 99 98 0
34.320000 20.680000 3.740000 98 99 98 0
34.540000 20.680000 3.740000 98 99 98 0
34.760000 20.680000 3.740000 99 100 99 0
34.980000 20.680000 3.740000 99 100 99 0
0.000000 20.900000 3.080000 94 95 94 0
0.220000 20.900000 3.080000 89 90 89 0
0.440000 20.900000 3.080000 78 79 78 0
0.660000 20.900000 3.300000 71 72 71 0
0.880000 20.900000 3.080000 68 69 68 0
1.100000 20.900000 3.080000 69 70 69 0
1.320000 20.900000 3.080000 66 67 66 0
1.540000 20.900000 3.080000 61 62 61 0
1.760000 20.900000 2.860000 60 61 60 0
1.980000 20.900000 3.080000 64 65 64 0
2.200000 20.900000 2.640000 67 68 67 0
2.420000 20.900000 14.080000 71 72 71 0
2.640000 20.900000 34.320000 71 72 71 0
2.860000 20.900000 42.900000 71 72 71 0
3.080000 20.900000 42.680000 71 72 71 0
3.300000 20.900000 42.240000 71 72 71 0
3.520000 20.900000 41.580000 74 75 74 0
3.740000 20.900000 41.140000 77 78 77 0
3.960000 20.900000 40.920000 76 77 76 0
4.180000 20.900000 40.480000 84 85 84 0
4.400000 20.900000 39.600000 94 95 94 0
4.620000 20.900000 39.160000 108 109 108 0
4.840000 20.900000 43.560000 103 104 103 0
5.060000 20.900000 43.560000 117 118 117 0
5.280000 20.900000 43.560000 122 123 122 0
5.500000 20.900000 43.560000 124 125 124 0
5.720000 20.900000 43.560000 122 123 122 0
5.940000 20.900000 43.560000 124 125 124 0
6.160000 20.900000 43.560000 106 107 106 0
6.380000 20.900000 43.560000 110 111 110 0
6.600000 20.900000 43.560000 115 116 115 0
6.820000 20.900000 43.560000 119 120 119 0
7.040000 20.900000 43.560000 112 113 112 0
7.260000 20.900000 43.560000 105 106 105 0
7.480000 20.900000 43.560000 87 88 87 0
7.700000 20.900000 43.560000 71 72 71 0
7.920000 20.900000 43.560000 50 51 50 0
8.140000 20.900000 43.560000 40 41 40 0
8.360000 20.900000 43.560000 37 38 37 0
8.580000 20.900000 43.560000 35 36 35 0
8.800000 20.900000 43.560000 35 36 35 0
9.020000 20.900000 43.560000 36 37 36 0
9.240000 20.900000 43.560000 45 46 45 0
9.460000 20.900000 43.560000 53 54 53 0
9.680000 20.900000 43.560000 97 98 97 0
9.900000 20.900000 43.560000 102 103 102 0
10.120000 20.900000 43.560000 97 98 97 0
10.340000 20.900000 43.560000 91 92 91 0
10.560000 20.900000 43.560000 99 100 99 0
10.780000 20.900000 43.560000 102 103 102 0
11.000000 20.900000 43.560000 102 103 102 0
11.220000 20.900000 43.560000 89 90 89 0
11.440000 20.900000 43.560000 90 91 90 0
11.660000 20.900000 43.560000 87 88 87 0
11.880000 20.900000 43.560000 96 97 96 0
12.100000 20.900000 43.560000 101 102 101 0
12.320000 20.900000 43.560000 81 82 81 0
12.540000 20.900000 43.560000 70 71 70 0
12.760000 20.900000 43.560000 81 82 81 0
12.980000 20.900000 43.560000 109 110 109 0
13.200000 20.900000 43.560000 118 119 118 0
13.420000 20.900000 43.560000 120 121 120 0
13.640000 20.900000 43.560000 124 125 124 0
13.860000 20.900000 43.560000 125 126 125 0
14.080000 20.900000 43.560000 124 125 124 0
14.300000 20.900000 43.560000 128 129 128 0
14.520000 20.900000 43.560000 129 130 129 0
14.740000 20.900000 43.560000 130 131 130 0
14.960000 20.900000 43.560000 121 122 121 0
15.180000 20.900000 43.560000 118 119 118 0
15.400000 20.900000 43.560000 149 150 149 0
15.620000 20.900000 43.560000 146 147 146 0
15.840000 20.900000 43.560000 151 152 151 0
16.060000 20.900000 43.560000 160 161 160 0
16.280000 20.900000 43.560000 158 159 158 0
16.500000 20.900000 43.560000 155 156 155 0
16.720000 20.900000 43.560000 160 161 160 0
16.940000 20.900000 43.560000 159 160 159 0
17.160000 20.900000 43.560000 162 163 162 0
17.380000 20.900000 43.560000 153 154 153 0
17.600000 20.900000 43.560000 151 152 151 0
17.820000 20.900000 43.560000 134 135 134 0
18.040000 20.900000 43.560000 81 82 81 0
18.260000 20.900000 43.560000 86 87 86 0
18.480000 20.900000 43.560000 93 94 93 0
18.700000 20.900000 43.560000 102 103 102 0
18.920000 20.900000 43.560000 126 127 126 0
19.140000 20.900000 43.560000 158 159 158 0
19.360000 20.900000 43.560000 179 180 179 0
19.580000 20.900000 43.560000 213 214 213 0
19.800000 20.900000 43.560000 216 217 216 0
20.020000 20.900000 43.560000 218 219 218 0
20.240000 20.900000 43.560000 211 212 211 0
20.460000 20.900000 43.560000 197 198 197 0
20.680000 20.900000 43.560000 202 203 202 0
20.900000 20.900000 43.560000 203 204 203 0
21.120000 20.900000 43.560000 184 185 184 0
21.340000 20.900000 43.560000 148 149 148 0
21.560000 20.900000 43.560000 91 92 91 0
21.780000 20.900000 43.560000 92 93 92 0
22.000000 20.900000 43.560000 110 111 110 0
22.220000 20.900000 43.560000 87 88 87 0
22.440000 20.900000 43.560000 80 81 80 0
22.660000 20.900000 43.560000 83 84 83 0
22.880000 20.900000 43.560000 83 84 83 0
23.100000 20.900000 43.560000 97 98 97 0
23.320000 20.900000 43.560000 152 153 152 0
23.540000 20.900000 43.560000 205 206 205 0
23.760000 20.900000 43.560000 193 194 193 0
23.980000 20.900000 43.560000 197 198 197 0
24.200000 20.900000 43.560000 220 221 220 0
24.420000 20.900000 43.560000 223 224 223 0
24.640000 20.900000 43.560000 225 226 225 0
24.860000 20.900000 43.560000 222 223 222 0
25.080000 20.900000 43.560000 185 186 185 0
25.300000 20.900000 43.560000 122 123 122 0
25.520000 20.900000 43.560000 112 113 112 0
25.740000 20.900000 43.560000 161 162 161 0
25.960000 20.900000 43.560000 150 151 150 0
26.180000 20.900000 43.560000 146 147 146 0
26.400000 20.900000 43.560000 161 162 161 0
26.620000 20.900000 43.560000 159 160 159 0
26.840000 20.900000 43.560000 103 104 103 0
27.060000 20.900000 36.520000 51 52 51 0
27.280000 20.900000 36.520000 49 50 49 0
27.500000 20.900000 36.520000 50 51 50 0
27.720000 20.900000 36.740000 51 52 51 0
27.940000 20.900000 36.960000 53 54 53 0
28.160000 20.900000 36.960000 53 54 53 0
28.380000 20.900000 37.180000 54 55 54 0
28.600000 20.900000 37.180000 54 55 54 0
28.820000 20.900000 37.400000 53 54 53 0
29.040000 20.900000 37.400000 55 56 55 0
29.260000 20.900000 43.560000 62 63 62 0
29.480000 20.900000 43.560000 80 81 80 0
29.700000 20.900000 29.700000 92 93 92 0
29.920000 20.900000 7.260000 97 98 97 0
30.140000 20.900000 6.600000 100 101 100 0
30.360000 20.900000 4.400000 95 96 95 0
30.580000 20.900000 3.300000 91 92 91 0
30.800000 20.900000 3.080000 92 93 92 0
31.020000 20.900000 3.080000 92 93 92 0
31.240000 20.900000 3.080000 93 94 93 0
31.460000 20.900000 2.860000 94 95 94 0
31.680000 20.900000 3.080000 95 96 95 0
31.900000 20.900000 2.860000 96 97 96 0
32.120000 20.900000 3.080000 97 98 97 0
32.340000 20.900000 2.860000 97 98 97 0
32.560000 20.900000 2.860000 97 98 97 0
32.780000 20.900000 2.860000 97 98 97 0
33.000000 20.900000 2.860000 98 99 98 0
33.220000 20.900000 2.860000 97 98 97 0
33.440000 20.900000 3.080000 98 99 98 0
33.660000 20.900000 2.860000 98 99 98 0
33.880000 20.900000 3.080000 98 99 98 0
34.100000 20.900000 3.080000 99 100 99 0
34.320000 20.900000 3.080000 99 100 99 0
34.540000 20.900000 3.080000 99 100 99 0
34.760000 20.900000 2.860000 99 100 99 0
34.980000 20.900000 3.080000 99 100 99 0
0.000000 21.120000 2.200000 93 94 93 0
0.220000 21.120000 2.200000 89 90 89 0
0.440000 21.120000 2.420000 77 78 77 0
0.660000 21.120000 2.420000 71 72 71 0
0.880000 21.120000 2.420000 69 70 69 0
1.100000 21.120000 2.420000 69 70 69 0
1.320000 21.120000 2.420000 65 66 65 0
1.540000 21.120000 2.420000 60 61 60 0
1.760000 21.120000 2.420000 61 62 61 0
1.980000 21.120000 2.420000 67 68 67 0
2.200000 21.120000 1.760000 70 71 70 0
2.420000 21.120000 12.760000 74 75 74 0
2.640000 21.120000 33.220000 73 74 73 0
2.860000 21.120000 42.020000 76 77 76 0
3.080000 21.120000 41.360000 76 77 76 0
3.300000 21.120000 40.920000 77 78 77 0
3.520000 21.120000 40.480000 83 84 83 0
3.740000 21.120000 40.040000 82 83 82 0
3.960000 21.120000 39.600000 83 84 83 0
4.180000 21.120000 38.940000 90 91 90 0
4.400000 21.120000 38.500000 103 104 103 0
4.620000 21.120000 38.280000 116 117 116 0
4.840000 21.120000 43.560000 114 115 114 0
5.060000 21.120000 43.560000 122 123 122 0
5.280000 21.120000 43.560000 137 138 137 0
5.500000 21.120000 43.560000 122 123 122 0
5.720000 21.120000 43.560000 105 106 105 0
5.940000 21.120000 43.560000 119 120 119 0
6.160000 21.120000 43.560000 112 113 112 0
6.380000 21.120000 43.560000 99 100 99 0
6.600000 21.120000 43.560000 104 105 104 0
6.820000 21.120000 43.560000 100 101 100 0
7.040000 21.120000 43.560000 102 103 102 0
7.260000 21.120000 43.560000 93 94 93 0
7.480000 21.120000 43.560000 74 75 74 0
7.700000 21.120000 43.560000 71 72 71 0
7.920000 21.120000 43.560000 49 50 49 0
8.140000 21.120000 43.560000 35 36 35 0
8.360000 21.120000 43.560000 31 32 31 0
8.580000 21.120000 43.560000 30 31 30 0
8.800000 21.120000 43.560000 29 30 29 0
9.020000 21.120000 43.560000 30 31 30 0
9.240000 21.120000 43.560000 36 37 36 0
9.460000 21.120000 43.560000 52 53 52 0
9.680000 21.120000 43.560000 87 88 87 0
9.900000 21.120000 43.560000 87 88 87 0
10.120000 21.120000 43.560000 87 88 87 0
10.340000 21.120000 43.560000 85 86 85 0
10.560000 21.120000 43.560000 71 72 71 0
10.780000 21.120000 43.560000 80 81 80 0
11.000000 21.120000 43.560000 85 86 85 0
11.220000 21.120000 43.560000 79 80 79 0
11.440000 21.120000 43.560000 82 83 82 0
11.660000 21.120000 43.560000 74 75 74 0
11.880000 21.120000 43.560000 84 85 84 0
12.100000 21.120000 43.560000 91 92 91 0
12.320000 21.120000 43.560000 81 82 81 0
12.540000 21.120000 43.560000 73 74 73 0
12.760000 21.120000 43.560000 73 74 73 0
12.980000 21.120000 43.560000 99 100 99 0
13.200000 21.120000 43.560000 97 98 97 0
13.420000 21.120000 43.560000 108 109 108 0
13.640000 21.120000 43.560000 112 113 112 0
13.860000 21.120000 43.560000 114 115 114 0
14.080000 21.120000 43.560000 118 119 118 0
14.300000 21.120000 43.560000 111 112 111 0
14.520000 21.120000 43.560000 108 109 108 0
14.740000 21.120000 43.560000 122 123 122 0
14.960000 21.120000 43.560000 108 109 108 0
15.180000 21.120000 43.560000 118 119 118 0
15.400000 21.120000 43.560000 134 135 134 0
15.620000 21.120000 43.560000 137 138 137 0
15.840000 21.120000 43.560000 137 138 137 0
16.060000 21.120000 43.560000 136 137 136 0
16.280000 21.120000 43.560000 141 142 141 0
16.500000 21.120000 43.560000 146 147 146 0
16.720000 21.120000 43.560000 144 145 144 0
16.940000 21.120000 43.560000 139 140 139 0
17.160000 21.120000 43.560000 141 142 141 0
17.380000 21.120000 43.560000 138 139 138 0
17.600000 21.120000 43.560000 117 118 117 0
17.820000 21.120000 43.560000 79 80 79 0
18.040000 21.120000 43.560000 78 79 78 0
18.260000 21.120000 43.560000 106 107 106 0
18.480000 21.120000 43.560000 122 123 122 0
18.700000 21.120000 43.560000 114 115 114 0
18.920000 21.120000 43.560000 155 156 155 0
19.140000 21.120000 43.560000 197 198 197 0
19.360000 21.120000 43.560000 195 196 195 0
19.580000 21.120000 43.560000 190 191 190 0
19.800000 21.120000 43.560000 197 198 197 0
20.020000 21.120000 43.560000 198 199 198 0
20.240000 21.120000 43.560000 193 194 193 0
20.460000 21.120000 43.560000 187 188 187 0
20.680000 21.120000 43.560000 197 198 197 0
20.900000 21.120000 43.560000 193 194 193 0
21.120000 21.120000 43.560000 167 168 167 0
21.340000 21.120000 43.560000 144 145 144 0
21.560000 21.120000 43.560000 108 109 108 0
21.780000 21.120000 43.560000 139 140 139 0
22.000000 21.120000 43.560000 175 176 175 0
22.220000 21.120000 43.560000 118 119 118 0
22.440000 21.120000 43.560000 87 88 87 0
22.660000 21.120000 43.560000 104 105 104 0
22.880000 21.120000 43.560000 125 126 125 0
23.100000 21.120000 43.560000 159 160 159 0
23.320000 21.120000 43.560000 192 193 192 0
23.540000 21.120000 43.560000 201 202 201 0
23.760000 21.120000 43.560000 206 207 206 0
23.980000 21.120000 43.560000 218 219 218 0
24.200000 21.120000 43.560000 224 225 224 0
24.420000 21.120000 43.560000 225 226 225 0
24.640000 21.120000 43.560000 225 226 225 0
24.860000 21.120000 43.560000 224 225 224 0
25.080000 21.120000 43.560000 210 211 210 0
25.300000 21.120000 43.560000 155 156 155 0
25.520000 21.120000 43.560000 149 150 149 0
25.740000 21.120000 43.560000 184 185 184 0
25.960000 21.120000 43.560000 158 159 158 0
26.180000 21.120000 43.560000 165 166 165 0
26.400000 21.120000 43.560000 186 187 186 0
26.620000 21.120000 43.560000 187 188 187 0
26.840000 21.120000 43.560000 151 152 151 0
27.060000 21.120000 43.560000 62 63 62 0
27.280000 21.120000 35.420000 45 46 45 0
27.500000 21.120000 35.640000 45 46 45 0
27.720000 21.120000 35.860000 47 48 47 0
27.940000 21.120000 35.860000 49 50 49 0
28.160000 21.120000 36.080000 50 51 50 0
28.380000 21.120000 36.080000 50 51 50 0
28.600000 21.120000 36.300000 51 52 51 0
28.820000 21.120000 36.300000 51 52 51 0
29.040000 21.120000 36.300000 51 52 51 0
29.260000 21.120000 36.520000 55 56 55 0
29.480000 21.120000 43.560000 69 70 69 0
29.700000 21.120000 37.840000 85 86 85 0
29.920000 21.120000 17.380000 92 93 92 0
30.140000 21.120000 4.620000 95 96 95 0
30.360000 21.120000 3.520000 94 95 94 0
30.580000 21.120000 2.640000 91 92 91 0
30.800000 21.120000 2.420000 91 92 91 0
31.020000 21.120000 2.420000 92 93 92 0
31.240000 21.120000 2.420000 93 94 93 0
31.460000 21.120000 2.200000 94 95 94 0
31.680000 21.120000 2.200000 95 96 95 0
31.900000 21.120000 2.200000 96 97 96 0
32.120000 21.120000 2.200000 97 98 97 0
32.340000 21.120000 1.980000 97 98 97 0
32.560000 21.120000 1.980000 97 98 97 0
32.780000 21.120000 1.980000 97 98 97 0
33.000000 21.120000 1.980000 98 99 98 0
33.220000 21.120000 2.200000 98 99 98 0
33.440000 21.120000 1.980000 98 99 98 0
33.660000 21.120000 2.200000 98 99 98 0
33.880000 21.120000 2.200000 98 99 98 0
34.100000 21.120000 2.200000 98 99 98 0
34.320000 21.120000 2.200000 98 99 98 0
34.540000 21.120000 1.980000 99 100 99 0
34.760000 21.120000 1.980000 98 99 98 0
34.980000 21.120000 2.200000 99 100 99 0
0.000000 21.340000 1.320000 93 94 93 0
0.220000 21.340000 1.320000 88 89 88 0
0.440000 21.340000 1.540000 76 77 76 0
0.660000 21.340000 1.540000 71 72 71 0
0.880000 21.340000 1.540000 69 70 69 0
1.100000 21.340000 1.540000 67 68 67 0
1.320000 21.340000 1.540000 63 64 63 0
1.540000 21.340000 1.540000 62 63 62 0
1.760000 21.340000 1.540000 65 66 65 0
1.980000 21.340000 1.540000 69 70 69 0
2.200000 21.340000 0.880000 72 73 72 0
2.420000 21.340000 11.220000 77 78 77 0
2.640000 21.340000 32.120000 77 78 77 0
2.860000 21.340000 40.920000 79 80 79 0
3.080000 21.340000 40.260000 77 78 77 0
3.300000 21.340000 39.820000 82 83 82 0
3.520000 21.340000 39.380000 92 93 92 0
3.740000 21.340000 38.720000 95 96 95 0
3.960000 21.340000 38.280000 96 97 96 0
4.180000 21.340000 43.560000 101 102 101 0
4.400000 21.340000 43.560000 120 121 120 0
4.620000 21.340000 43.560000 124 125 124 0
4.840000 21.340000 43.560000 133 134 133 0
5.060000 21.340000 43.560000 137 138 137 0
5.280000 21.340000 43.560000 134 135 134 0
5.500000 21.340000 43.560000 113 114 113 0
5.720000 21.340000 43.560000 96 97 96 0
5.940000 21.340000 43.560000 103 104 103 0
6.160000 21.340000 43.560000 100 101 100 0
6.380000 21.340000 43.560000 89 90 89 0
6.600000 21.340000 43.560000 88 89 88 0
6.820000 21.340000 43.560000 82 83 82 0
7.040000 21.340000 43.560000 85 86 85 0
7.260000 21.340000 43.560000 84 85 84 0
7.480000 21.340000 43.560000 81 82 81 0
7.700000 21.340000 43.560000 73 74 73 0
7.920000 21.340000 43.560000 43 44 43 0
8.140000 21.340000 43.560000 29 30 29 0
8.360000 21.340000 43.560000 27 28 27 0
8.580000 21.340000 43.560000 26 27 26 0
8.800000 21.340000 43.560000 26 27 26 0
9.020000 21.340000 43.560000 30 31 30 0
9.240000 21.340000 43.560000 36 37 36 0
9.460000 21.340000 43.560000 62 63 62 0
9.680000 21.340000 43.560000 81 82 81 0
9.900000 21.340000 43.560000 81 82 81 0
10.120000 21.340000 43.560000 81 82 81 0
10.340000 21.340000 43.560000 75 76 75 0
10.560000 21.340000 43.560000 54 55 54 0
10.780000 21.340000 43.560000 68 69 68 0
11.000000 21.340000 43.560000 71 72 71 0
11.220000 21.340000 43.560000 77 78 77 0
11.440000 21.340000 43.560000 72 73 72 0
11.660000 21.340000 43.560000 69 70 69 0
11.880000 21.340000 43.560000 81 82 81 0
12.100000 21.340000 43.560000 80 81 80 0
12.320000 21.340000 43.560000 73 74 73 0
12.540000 21.340000 43.560000 77 78 77 0
12.760000 21.340000 43.560000 80 81 80 0
12.980000 21.340000 43.560000 88 89 88 0
13.200000 21.340000 43.560000 87 88 87 0
13.420000 21.340000 43.560000 92 93 92 0
13.640000 21.340000 43.560000 97 98 97 0
13.860000 21.340000 43.560000 103 104 103 0
14.080000 21.340000 43.560000 106 107 106 0
14.300000 21.340000 43.560000 99 100 99 0
14.520000 21.340000 43.560000 103 104 103 0
14.740000 21.340000 43.560000 110 111 110 0
14.960000 21.340000 43.560000 108 109 108 0
15.180000 21.340000 43.560000 115 116 115 0
15.400000 21.340000 43.560000 120 121 120 0
15.620000 21.340000 43.560000 120 121 120 0
15.840000 21.340000 43.560000 117 118 117 0
16.060000 21.340000 43.560000 117 118 117 0
16.280000 21.340000 43.560000 122 123 122 0
16.500000 21.340000 43.560000 125 126 125 0
16.720000 21.340000 43.560000 125 126 125 0
16.940000 21.340000 43.560000 122 123 122 0
17.160000 21.340000 43.560000 120 121 120 0
17.380000 21.340000 43.560000 114 115 114 0
17.600000 21.340000 43.560000 83 84 83 0
17.820000 21.340000 43.560000 94 95 94 0
18.040000 21.340000 43.560000 131 132 131 0
18.260000 21.340000 43.560000 135 136 135 0
18.480000 21.340000 43.560000 158 159 158 0
18.700000 21.340000 43.560000 153 154 153 0
18.920000 21.340000 43.560000 166 167 166 0
19.140000 21.340000 43.560000 177 178 177 0
19.360000 21.340000 43.560000 166 167 166 0
19.580000 21.340000 43.560000 159 160 159 0
19.800000 21.340000 43.560000 159 160 159 0
20.020000 21.340000 43.560000 166 167 166 0
20.240000 21.340000 43.560000 159 160 159 0
20.460000 21.340000 43.560000 151 152 151 0
20.680000 21.340000 43.560000 161 162 161 0
20.900000 21.340000 43.560000 157 158 157 0
21.120000 21.340000 43.560000 134 135 134 0
21.340000 21.340000 43.560000 126 127 126 0
21.560000 21.340000 43.560000 150 151 150 0
21.780000 21.340000 43.560000 163 164 163 0
22.000000 21.340000 43.560000 169 170 169 0
22.220000 21.340000 43.560000 149 150 149 0
22.440000 21.340000 43.560000 148 149 148 0
22.660000 21.340000 43.560000 174 175 174 0
22.880000 21.340000 43.560000 188 189 188 0
23.100000 21.340000 43.560000 187 188 187 0
23.320000 21.340000 43.560000 193 194 193 0
23.540000 21.340000 43.560000 205 206 205 0
23.760000 21.340000 43.560000 212 213 212 0
23.980000 21.340000 43.560000 216 217 216 0
24.200000 21.340000 43.560000 219 220 219 0
24.420000 21.340000 43.560000 221 222 221 0
24.640000 21.340000 43.560000 219 220 219 0
24.860000 21.340000 43.560000 218 219 218 0
25.080000 21.340000 43.560000 211 212 211 0
25.300000 21.340000 43.560000 184 185 184 0
25.520000 21.340000 43.560000 187 188 187 0
25.740000 21.340000 43.560000 183 184 183 0
25.960000 21.340000 43.560000 160 161 160 0
26.180000 21.340000 43.560000 183 184 183 0
26.400000 21.340000 43.560000 200 201 200 0
26.620000 21.340000 43.560000 201 202 201 0
26.840000 21.340000 43.560000 179 180 179 0
27.060000 21.340000 43.560000 81 82 81 0
27.280000 21.340000 34.320000 42 43 42 0
27.500000 21.340000 34.540000 41 42 41 0
27.720000 21.340000 34.760000 41 42 41 0
27.940000 21.340000 34.760000 43 44 43 0
28.160000 21.340000 34.980000 45 46 45 0
28.380000 21.340000 35.200000 45 46 45 0
28.600000 21.340000 35.200000 45 46 45 0
28.820000 21.340000 35.420000 46 47 46 0
29.040000 21.340000 35.420000 47 48 47 0
29.260000 21.340000 35.420000 49 50 49 0
29.480000 21.340000 35.640000 57 58 57 0
29.700000 21.340000 36.300000 74 75 74 0
29.920000 21.340000 15.620000 83 84 83 0
30.140000 21.340000 2.860000 87 88 87 0
30.360000 21.340000 2.200000 90 91 90 0
30.580000 21.340000 1.760000 89 90 89 0
30.800000 21.340000 1.540000 91 92 91 0
31.020000 21.340000 1.540000 92 93 92 0
31.240000 21.340000 1.320000 92 93 92 0
31.460000 21.340000 1.540000 93 94 93 0
31.680000 21.340000 1.320000 94 95 94 0
31.900000 21.340000 1.320000 95 96 95 0
32.120000 21.340000 1.100000 96 97 96 0
32.340000 21.340000 1.320000 97 98 97 0
32.560000 21.340000 1.320000 98 99 98 0
32.780000 21.340000 1.100000 98 99 98 0
33.000000 21.340000 1.320000 98 99 98 0
33.220000 21.340000 1.320000 98 99 98 0
33.440000 21.340000 1.320000 98 99 98 0
33.660000 21.340000 1.320000 98 99 98 0
33.880000 21.340000 1.320000 98 99 98 0
34.100000 21.340000 1.320000 98 99 98 0
34.320000 21.340000 1.320000 98 99 98 0
34.540000 21.340000 1.320000 99 100 99 0
34.760000 21.340000 1.320000 98 99 98 0
34.980000 21.340000 1.320000 99 100 99 0
0.000000 21.560000 0.440000 93 94 93 0
0.220000 21.560000 0.660000 86 87 86 0
0.440000 21.560000 0.660000 76 77 76 0
0.660000 21.560000 0.440000 70 71 70 0
0.880000 21.560000 0.660000 68 69 68 0
1.100000 21.560000 0.660000 65 66 65 0
1.320000 21.560000 0.660000 63 64 63 0
1.540000 21.560000 0.660000 64 65 64 0
1.760000 21.560000 0.660000 66 67 66 0
1.980000 21.560000 0.440000 69 70 69 0
2.420000 21.560000 20.900000 76 77 76 0
2.640000 21.560000 40.040000 78 79 78 0
2.860000 21.560000 39.600000 78 79 78 0
3.080000 21.560000 39.160000 78 79 78 0
3.300000 21.560000 38.500000 89 90 89 0
3.520000 21.560000 38.060000 98 99 98 0
3.740000 21.560000 37.620000 105 106 105 0
3.960000 21.560000 37.180000 106 107 106 0
4.180000 21.560000 43.560000 117 118 117 0
4.400000 21.560000 43.560000 132 133 132 0
4.620000 21.560000 43.560000 124 125 124 0
4.840000 21.560000 43.560000 137 138 137 0
5.060000 21.560000 43.560000 133 134 133 0
5.280000 21.560000 43.560000 119 120 119 0
5.500000 21.560000 43.560000 100 101 100 0
5.720000 21.560000 43.560000 87 88 87 0
5.940000 21.560000 43.560000 87 88 87 0
6.160000 21.560000 43.340000 88 89 88 0
6.380000 21.560000 43.560000 77 78 77 0
6.600000 21.560000 43.560000 76 77 76 0
6.820000 21.560000 43.560000 69 70 69 0
7.040000 21.560000 43.560000 75 76 75 0
7.260000 21.560000 43.560000 78 79 78 0
7.480000 21.560000 43.560000 75 76 75 0
7.700000 21.560000 43.560000 62 63 62 0
7.920000 21.560000 43.560000 36 37 36 0
8.140000 21.560000 43.560000 24 25 24 0
8.360000 21.560000 43.560000 22 23 22 0
8.580000 21.560000 43.560000 22 23 22 0
8.800000 21.560000 43.560000 28 29 28 0
9.020000 21.560000 43.560000 33 34 33 0
9.240000 21.560000 43.560000 54 55 54 0
9.460000 21.560000 43.560000 59 60 59 0
9.680000 21.560000 43.560000 71 72 71 0
9.900000 21.560000 43.560000 78 79 78 0
10.120000 21.560000 43.560000 78 79 78 0
10.340000 21.560000 43.560000 74 75 74 0
10.560000 21.560000 43.560000 70 71 70 0
10.780000 21.560000 43.560000 62 63 62 0
11.000000 21.560000 43.560000 68 69 68 0
11.220000 21.560000 43.560000 61 62 61 0
11.440000 21.560000 43.560000 63 64 63 0
11.660000 21.560000 43.560000 67 68 67 0
11.880000 21.560000 43.560000 81 82 81 0
12.100000 21.560000 43.560000 80 81 80 0
12.320000 21.560000 43.560000 72 73 72 0
12.540000 21.560000 43.560000 70 71 70 0
12.760000 21.560000 43.560000 86 87 86 0
12.980000 21.560000 43.560000 88 89 88 0
13.200000 21.560000 43.560000 87 88 87 0
13.420000 21.560000 43.560000 86 87 86 0
13.640000 21.560000 43.560000 93 94 93 0
13.860000 21.560000 43.560000 99 100 99 0
14.080000 21.560000 43.560000 99 100 99 0
14.300000 21.560000 43.560000 96 97 96 0
14.520000 21.560000 43.560000 98 99 98 0
14.740000 21.560000 43.560000 99 100 99 0
14.960000 21.560000 43.560000 98 99 98 0
15.180000 21.560000 43.560000 100 101 100 0
15.400000 21.560000 43.560000 107 108 107 0
15.620000 21.560000 43.560000 107 108 107 0
15.840000 21.560000 43.560000 108 109 108 0
16.060000 21.560000 43.560000 108 109 108 0
16.280000 21.560000 43.560000 108 109 108 0
16.500000 21.560000 43.560000 109 110 109 0
16.720000 21.560000 43.560000 112 113 112 0
16.940000 21.560000 43.560000 107 108 107 0
17.160000 21.560000 43.560000 111 112 111 0
17.380000 21.560000 43.560000 113 114 113 0
17.600000 21.560000 43.560000 122 123 122 0
17.820000 21.560000 43.560000 132 133 132 0
18.040000 21.560000 43.560000 145 146 145 0
18.260000 21.560000 43.560000 149 150 149 0
18.480000 21.560000 43.560000 151 152 151 0
18.700000 21.560000 43.560000 150 151 150 0
18.920000 21.560000 43.560000 151 152 151 0
19.140000 21.560000 43.560000 149 150 149 0
19.360000 21.560000 43.560000 144 145 144 0
19.580000 21.560000 43.560000 140 141 140 0
19.800000 21.560000 43.560000 125 126 125 0
20.020000 21.560000 43.560000 129 130 129 0
20.240000 21.560000 43.560000 129 130 129 0
20.460000 21.560000 43.560000 121 122 121 0
20.680000 21.560000 43.560000 131 132 131 0
20.900000 21.560000 43.560000 125 126 125 0
21.120000 21.560000 43.560000 113 114 113 0
21.340000 21.560000 43.560000 138 139 138 0
21.560000 21.560000 43.560000 142 143 142 0
21.780000 21.560000 43.560000 141 142 141 0
22.000000 21.560000 43.560000 143 144 143 0
22.220000 21.560000 43.560000 139 140 139 0
22.440000 21.560000 43.560000 157 158 157 0
22.660000 21.560000 43.560000 168 169 168 0
22.880000 21.560000 43.560000 173 174 173 0
23.100000 21.560000 43.560000 174 175 174 0
23.320000 21.560000 43.560000 174 175 174 0
23.540000 21.560000 43.560000 187 188 187 0
23.760000 21.560000 43.560000 194 195 194 0
23.980000 21.560000 43.560000 200 201 200 0
24.200000 21.560000 43.560000 203 204 203 0
24.420000 21.560000 43.560000 204 205 204 0
24.640000 21.560000 43.560000 203 204 203 0
24.860000 21.560000 43.560000 203 204 203 0
25.080000 21.560000 43.560000 198 199 198 0
25.300000 21.560000 43.560000 189 190 189 0
25.520000 21.560000 43.560000 195 196 195 0
25.740000 21.560000 43.560000 178 179 178 0
25.960000 21.560000 43.560000 156 157 156 0
26.180000 21.560000 43.560000 192 193 192 0
26.400000 21.560000 43.560000 202 203 202 0
26.620000 21.560000 43.560000 198 199 198 0
26.840000 21.560000 43.560000 194 195 194 0
27.060000 21.560000 43.560000 129 130 129 0
27.280000 21.560000 43.120000 49 50 49 0
27.500000 21.560000 33.220000 38 39 38 0
27.720000 21.560000 33.440000 38 39 38 0
27.940000 21.560000 33.660000 37 38 37 0
28.160000 21.560000 33.880000 39 40 39 0
28.380000 21.560000 33.880000 40 41 40 0
28.600000 21.560000 34.100000 40 41 40 0
28.820000 21.560000 34.320000 40 41 40 0
29.040000 21.560000 34.320000 41 42 41 0
29.260000 21.560000 34.320000 41 42 41 0
29.480000 21.560000 34.540000 44 45 44 0
29.700000 21.560000 34.980000 56 57 56 0
29.920000 21.560000 25.080000 69 70 69 0
30.140000 21.560000 1.320000 77 78 77 0
30.360000 21.560000 1.100000 82 83 82 0
30.580000 21.560000 0.880000 85 86 85 0
30.800000 21.560000 0.660000 89 90 89 0
31.020000 21.560000 0.660000 91 92 91 0
31.240000 21.560000 0.440000 91 92 91 0
31.460000 21.560000 0.660000 93 94 93 0
31.680000 21.560000 0.440000 93 94 93 0
31.900000 21.560000 0.440000 95 96 95 0
32.120000 21.560000 0.440000 96 97 96 0
32.340000 21.560000 0.440000 96 97 96 0
32.560000 21.560000 0.440000 97 98 97 0
32.780000 21.560000 0.440000 97 98 97 0
33.000000 21.560000 0.440000 98 99 98 0
33.220000 21.560000 0.440000 99 100 99 0
33.440000 21.560000 0.440000 98 99 98 0
33.660000 21.560000 0.440000 99 100 99 0
33.880000 21.560000 0.440000 98 99 98 0
34.100000 21.560000 0.440000 99 100 99 0
34.320000 21.560000 0.440000 98 99 98 0
34.540000 21.560000 0.440000 98 99 98 0
34.760000 21.560000 0.440000 98 99 98 0
34.980000 21.560000 0.440000 99 100 99 0
2.200000 21.780000 43.560000 74 75 74 0
2.420000 21.780000 29.920000 80 81 80 0
2.640000 21.780000 38.940000 83 84 83 0
2.860000 21.780000 38.280000 83 84 83 0
3.080000 21.780000 37.620000 86 87 86 0
3.300000 21.780000 37.400000 99 100 99 0
3.520000 21.780000 36.960000 110 111 110 0
3.740000 21.780000 36.520000 111 112 111 0
3.960000 21.780000 43.560000 124 125 124 0
4.180000 21.780000 43.560000 130 131 130 0
4.400000 21.780000 43.560000 136 137 136 0
4.620000 21.780000 43.560000 124 125 124 0
4.840000 21.780000 43.560000 120 121 120 0
5.060000 21.780000 43.560000 111 112 111 0
5.280000 21.780000 43.560000 109 110 109 0
5.500000 21.780000 43.340000 84 85 84 0
5.720000 21.780000 43.120000 77 78 77 0
5.940000 21.780000 42.900000 71 72 71 0
6.160000 21.780000 42.680000 66 67 66 0
6.380000 21.780000 42.240000 63 64 63 0
6.600000 21.780000 43.560000 65 66 65 0
6.820000 21.780000 43.560000 62 63 62 0
7.040000 21.780000 43.560000 69 70 69 0
7.260000 21.780000 43.560000 78 79 78 0
7.480000 21.780000 43.560000 72 73 72 0
7.700000 21.780000 43.560000 55 56 55 0
7.920000 21.780000 43.560000 30 31 30 0
8.140000 21.780000 43.560000 21 22 21 0
8.360000 21.780000 43.560000 20 21 20 0
8.580000 21.780000 43.560000 23 24 23 0
8.800000 21.780000 43.560000 30 31 30 0
9.020000 21.780000 43.560000 52 53 52 0
9.240000 21.780000 43.560000 83 84 83 0
9.460000 21.780000 43.560000 63 64 63 0
9.680000 21.780000 43.560000 67 68 67 0
9.900000 21.780000 43.560000 76 77 76 0
10.120000 21.780000 43.560000 60 61 60 0
10.340000 21.780000 43.560000 55 56 55 0
10.560000 21.780000 43.560000 67 68 67 0
10.780000 21.780000 43.560000 70 71 70 0
11.000000 21.780000 43.560000 72 73 72 0
11.220000 21.780000 43.560000 59 60 59 0
11.440000 21.780000 43.560000 63 64 63 0
11.660000 21.780000 43.560000 78 79 78 0
11.880000 21.780000 43.560000 81 82 81 0
12.100000 21.780000 43.560000 73 74 73 0
12.320000 21.780000 43.560000 74 75 74 0
12.540000 21.780000 43.560000 80 81 80 0
12.760000 21.780000 43.560000 80 81 80 0
12.980000 21.780000 43.560000 86 87 86 0
13.200000 21.780000 43.560000 84 85 84 0
13.420000 21.780000 43.560000 89 90 89 0
13.640000 21.780000 43.560000 90 91 90 0
13.860000 21.780000 43.560000 86 87 86 0
14.080000 21.780000 43.560000 87 88 87 0
14.300000 21.780000 43.560000 94 95 94 0
14.520000 21.780000 43.560000 94 95 94 0
14.740000 21.780000 43.560000 92 93 92 0
14.960000 21.780000 43.560000 92 93 92 0
15.180000 21.780000 43.560000 92 93 92 0
15.400000 21.780000 43.560000 98 99 98 0
15.620000 21.780000 43.560000 99 100 99 0
15.840000 21.780000 43.560000 96 97 96 0
16.060000 21.780000 43.560000 102 103 102 0
16.280000 21.780000 43.560000 99 100 99 0
16.500000 21.780000 43.560000 98 99 98 0
16.720000 21.780000 43.560000 99 100 99 0
16.940000 21.780000 43.560000 104 105 104 0
17.160000 21.780000 43.560000 116 117 116 0
17.380000 21.780000 43.560000 120 121 120 0
17.600000 21.780000 43.560000 117 118 117 0
17.820000 21.780000 43.560000 132 133 132 0
18.040000 21.780000 43.560000 136 137 136 0
18.260000 21.780000 43.560000 135 136 135 0
18.480000 21.780000 43.560000 131 132 131 0
18.700000 21.780000 43.560000 132 133 132 0
18.920000 21.780000 43.560000 131 132 131 0
19.140000 21.780000 43.560000 129 130 129 0
19.360000 21.780000 43.560000 124 125 124 0
19.580000 21.780000 43.560000 122 123 122 0
19.800000 21.780000 43.560000 115 116 115 0
20.020000 21.780000 43.560000 104 105 104 0
20.240000 21.780000 43.560000 106 107 106 0
20.460000 21.780000 43.560000 107 108 107 0
20.680000 21.780000 43.560000 108 109 108 0
20.900000 21.780000 43.560000 103 104 103 0
21.120000 21.780000 43.560000 113 114 113 0
21.340000 21.780000 43.560000 127 128 127 0
21.560000 21.780000 43.560000 125 126 125 0
21.780000 21.780000 43.560000 122 123 122 0
22.000000 21.780000 43.560000 119 120 119 0
22.220000 21.780000 43.560000 123 124 123 0
22.440000 21.780000 43.560000 138 139 138 0
22.660000 21.780000 43.560000 141 142 141 0
22.880000 21.780000 43.560000 141 142 141 0
23.100000 21.780000 43.560000 142 143 142 0
23.320000 21.780000 43.560000 149 150 149 0
23.540000 21.780000 43.560000 161 162 161 0
23.760000 21.780000 43.560000 166 167 166 0
23.980000 21.780000 43.560000 169 170 169 0
24.200000 21.780000 43.560000 173 174 173 0
24.420000 21.780000 43.560000 174 175 174 0
24.640000 21.780000 43.560000 175 176 175 0
24.860000 21.780000 43.560000 176 177 176 0
25.080000 21.780000 43.560000 177 178 177 0
25.300000 21.780000 43.560000 165 166 165 0
25.520000 21.780000 43.560000 175 176 175 0
25.740000 21.780000 43.560000 181 182 181 0
25.960000 21.780000 43.560000 168 169 168 0
26.180000 21.780000 43.560000 186 187 186 0
26.400000 21.780000 43.560000 188 189 188 0
26.620000 21.780000 43.560000 191 192 191 0
26.840000 21.780000 43.560000 202 203 202 0
27.060000 21.780000 43.560000 179 180 179 0
27.280000 21.780000 43.560000 75 76 75 0
27.500000 21.780000 32.560000 40 41 40 0
27.720000 21.780000 32.340000 37 38 37 0
27.940000 21.780000 32.560000 34 35 34 0
28.160000 21.780000 32.560000 34 35 34 0
28.380000 21.780000 32.780000 34 35 34 0
28.600000 21.780000 33.000000 35 36 35 0
28.820000 21.780000 33.000000 36 37 36 0
29.040000 21.780000 33.000000 34 35 34 0
29.260000 21.780000 33.220000 36 37 36 0
29.480000 21.780000 33.220000 36 37 36 0
29.700000 21.780000 33.440000 41 42 41 0
29.920000 21.780000 23.540000 51 52 51 0
30.140000 21.780000 12.320000 61 62 61 0
32.780000 21.780000 43.560000 97 98 97 0
33.440000 21.780000 43.560000 98 99 98 0
33.660000 21.780000 43.560000 98 99 98 0
0.000000 22.000000 43.560000 92 93 92 0
0.220000 22.000000 43.560000 84 85 84 0
0.440000 22.000000 43.560000 75 76 75 0
0.660000 22.000000 43.560000 72 73 72 0
0.880000 22.000000 43.560000 68 69 68 0
1.100000 22.000000 43.560000 68 69 68 0
1.320000 22.000000 43.560000 70 71 70 0
1.540000 22.000000 43.560000 69 70 69 0
1.760000 22.000000 43.560000 72 73 72 0
1.980000 22.000000 43.560000 75 76 75 0
2.200000 22.000000 12.540000 75 76 75 0
2.420000 22.000000 28.380000 84 85 84 0
2.640000 22.000000 37.620000 89 90 89 0
2.860000 22.000000 37.180000 91 92 91 0
3.080000 22.000000 36.740000 99 100 99 0
3.300000 22.000000 36.300000 109 110 109 0
3.520000 22.000000 36.080000 121 122 121 0
3.740000 22.000000 43.560000 118 119 118 0
3.960000 22.000000 43.560000 131 132 131 0
4.180000 22.000000 43.560000 126 127 126 0
4.400000 22.000000 43.560000 125 126 125 0
4.620000 22.000000 43.560000 118 119 118 0
4.840000 22.000000 43.340000 118 119 118 0
5.060000 22.000000 43.120000 107 108 107 0
5.280000 22.000000 42.900000 95 96 95 0
5.500000 22.000000 42.680000 71 72 71 0
5.720000 22.000000 42.460000 59 60 59 0
5.940000 22.000000 42.240000 53 54 53 0
6.160000 22.000000 41.800000 50 51 50 0
6.380000 22.000000 43.560000 54 55 54 0
6.600000 22.000000 43.560000 61 62 61 0
6.820000 22.000000 43.560000 58 59 58 0
7.040000 22.000000 43.560000 62 63 62 0
7.260000 22.000000 43.560000 74 75 74 0
7.480000 22.000000 43.560000 61 62 61 0
7.700000 22.000000 43.560000 46 47 46 0
7.920000 22.000000 43.560000 27 28 27 0
8.140000 22.000000 43.560000 20 21 20 0
8.360000 22.000000 43.560000 21 22 21 0
8.580000 22.000000 43.560000 24 25 24 0
8.800000 22.000000 43.560000 48 49 48 0
9.020000 22.000000 43.560000 80 81 80 0
9.240000 22.000000 43.560000 80 81 80 0
9.460000 22.000000 43.560000 80 81 80 0
9.680000 22.000000 43.560000 74 75 74 0
9.900000 22.000000 43.560000 59 60 59 0
10.120000 22.000000 43.560000 39 40 39 0
10.340000 22.000000 43.560000 60 61 60 0
10.560000 22.000000 43.560000 73 74 73 0
10.780000 22.000000 43.560000 68 69 68 0
11.000000 22.000000 43.560000 69 70 69 0
11.220000 22.000000 43.560000 70 71 70 0
11.440000 22.000000 43.560000 64 65 64 0
11.660000 22.000000 43.560000 77 78 77 0
11.880000 22.000000 43.560000 86 87 86 0
12.100000 22.000000 43.560000 86 87 86 0
12.320000 22.000000 43.560000 87 88 87 0
12.540000 22.000000 43.560000 83 84 83 0
12.760000 22.000000 43.560000 86 87 86 0
12.980000 22.000000 43.560000 83 84 83 0
13.200000 22.000000 43.560000 90 91 90 0
13.420000 22.000000 43.560000 87 88 87 0
13.640000 22.000000 43.560000 87 88 87 0
13.860000 22.000000 43.560000 80 81 80 0
14.080000 22.000000 43.560000 85 86 85 0
14.300000 22.000000 43.560000 86 87 86 0
14.520000 22.000000 43.560000 86 87 86 0
14.740000 22.000000 43.560000 85 86 85 0
14.960000 22.000000 43.560000 86 87 86 0
15.180000 22.000000 43.560000 86 87 86 0
15.400000 22.000000 43.560000 94 95 94 0
15.620000 22.000000 43.560000 95 96 95 0
15.840000 22.000000 43.560000 94 95 94 0
16.060000 22.000000 43.560000 95 96 95 0
16.280000 22.000000 43.560000 92 93 92 0
16.500000 22.000000 43.560000 81 82 81 0
16.720000 22.000000 43.560000 89 90 89 0
16.940000 22.000000 43.560000 99 100 99 0
17.160000 22.000000 43.560000 106 107 106 0
17.380000 22.000000 43.560000 110 111 110 0
17.600000 22.000000 43.560000 119 120 119 0
17.820000 22.000000 43.560000 126 127 126 0
18.040000 22.000000 43.560000 125 126 125 0
18.260000 22.000000 43.560000 121 122 121 0
18.480000 22.000000 43.560000 120 121 120 0
18.700000 22.000000 43.560000 123 124 123 0
18.920000 22.000000 43.560000 122 123 122 0
19.140000 22.000000 43.560000 120 121 120 0
19.360000 22.000000 43.560000 117 118 117 0
19.580000 22.000000 43.560000 114 115 114 0
19.800000 22.000000 43.560000 110 111 110 0
20.020000 22.000000 43.560000 103 104 103 0
20.240000 22.000000 43.560000 95 96 95 0
20.460000 22.000000 43.560000 98 99 98 0
20.680000 22.000000 43.560000 96 97 96 0
20.900000 22.000000 43.560000 92 93 92 0
21.120000 22.000000 43.560000 102 103 102 0
21.340000 22.000000 43.560000 105 106 105 0
21.560000 22.000000 43.560000 108 109 108 0
21.780000 22.000000 43.560000 110 111 110 0
22.000000 22.000000 43.560000 110 111 110 0
22.220000 22.000000 43.560000 114 115 114 0
22.440000 22.000000 43.560000 113 114 113 0
22.660000 22.000000 43.560000 113 114 113 0
22.880000 22.000000 43.560000 113 114 113 0
23.100000 22.000000 43.560000 115 116 115 0
23.320000 22.000000 43.560000 122 123 122 0
23.540000 22.000000 43.560000 130 131 130 0
23.760000 22.000000 43.560000 134 135 134 0
23.980000 22.000000 43.560000 138 139 138 0
24.200000 22.000000 43.560000 139 140 139 0
24.420000 22.000000 43.560000 140 141 140 0
24.640000 22.000000 43.560000 141 142 141 0
24.860000 22.000000 43.560000 142 143 142 0
25.080000 22.000000 43.560000 143 144 143 0
25.300000 22.000000 43.560000 132 133 132 0
25.520000 22.000000 43.560000 137 138 137 0
25.740000 22.000000 43.560000 155 156 155 0
25.960000 22.000000 43.560000 152 153 152 0
26.180000 22.000000 43.560000 158 159 158 0
26.400000 22.000000 43.560000 161 162 161 0
26.620000 22.000000 43.560000 187 188 187 0
26.840000 22.000000 43.560000 195 196 195 0
27.060000 22.000000 43.560000 185 186 185 0
27.280000 22.000000 43.560000 96 97 96 0
27.500000 22.000000 31.900000 42 43 42 0
27.720000 22.000000 31.240000 39 40 39 0
27.940000 22.000000 31.460000 36 37 36 0
28.160000 22.000000 31.680000 34 35 34 0
28.380000 22.000000 31.900000 33 34 33 0
28.600000 22.000000 31.900000 32 33 32 0
28.820000 22.000000 31.900000 32 33 32 0
29.040000 22.000000 31.900000 31 32 31 0
29.260000 22.000000 32.120000 32 33 32 0
29.480000 22.000000 32.120000 31 32 31 0
29.700000 22.000000 32.340000 33 34 33 0
29.920000 22.000000 22.000000 37 38 37 0
30.140000 22.000000 10.780000 45 46 45 0
30.360000 22.000000 43.560000 56 57 56 0
30.580000 22.000000 43.560000 65 66 65 0
30.800000 22.000000 43.560000 75 76 75 0
31.020000 22.000000 43.560000 82 83 82 0
31.240000 22.000000 43.560000 88 89 88 0
31.460000 22.000000 43.560000 91 92 91 0
31.680000 22.000000 43.560000 93 94 93 0
31.900000 22.000000 43.560000 94 95 94 0
32.120000 22.000000 43.560000 94 95 94 0
32.340000 22.000000 43.560000 95 96 95 0
32.560000 22.000000 43.560000 96 97 96 0
32.780000 22.000000 43.560000 96 97 96 0
33.000000 22.000000 43.560000 98 99 98 0
33.220000 22.000000 43.560000 98 99 98 0
33.440000 22.000000 43.560000 98 99 98 0
33.660000 22.000000 43.560000 98 99 98 0
33.880000 22.000000 43.560000 98 99 98 0
34.100000 22.000000 43.560000 98 99 98 0
34.320000 22.000000 43.560000 98 99 98 0
34.540000 22.000000 43.560000 99 100 99 0
34.760000 22.000000 43.560000 98 99 98 0
34.980000 22.000000 43.560000 98 99 98 0
0.000000 22.220000 43.560000 92 93 92 0
0.220000 22.220000 43.560000 82 83 82 0
0.440000 22.220000 43.560000 73 74 73 0
0.660000 22.220000 43.560000 71 72 71 0
0.880000 22.220000 43.560000 70 71 70 0
1.100000 22.220000 43.560000 70 71 70 0
1.320000 22.220000 43.560000 67 68 67 0
1.540000 22.220000 43.560000 69 70 69 0
1.760000 22.220000 43.560000 71 72 71 0
1.980000 22.220000 43.560000 75 76 75 0
2.200000 22.220000 14.740000 78 79 78 0
2.420000 22.220000 36.740000 93 94 93 0
2.640000 22.220000 36.520000 98 99 98 0
2.860000 22.220000 36.080000 100 101 100 0
3.080000 22.220000 35.640000 114 115 114 0
3.300000 22.220000 43.560000 116 117 116 0
3.520000 22.220000 43.560000 122 123 122 0
3.740000 22.220000 43.560000 119 120 119 0
3.960000 22.220000 43.560000 123 124 123 0
4.180000 22.220000 43.120000 121 122 121 0
4.400000 22.220000 43.120000 115 116 115 0
4.620000 22.220000 42.900000 105 106 105 0
4.840000 22.220000 42.680000 101 102 101 0
5.060000 22.220000 42.460000 96 97 96 0
5.280000 22.220000 42.240000 77 78 77 0
5.500000 22.220000 42.020000 68 69 68 0
5.720000 22.220000 41.800000 53 54 53 0
5.940000 22.220000 41.360000 45 46 45 0
6.160000 22.220000 41.140000 46 47 46 0
6.380000 22.220000 43.560000 51 52 51 0
6.600000 22.220000 43.560000 57 58 57 0
6.820000 22.220000 43.560000 56 57 56 0
7.040000 22.220000 43.560000 59 60 59 0
7.260000 22.220000 43.560000 66 67 66 0
7.480000 22.220000 43.560000 59 60 59 0
7.700000 22.220000 43.560000 28 29 28 0
7.920000 22.220000 43.560000 20 21 20 0
8.140000 22.220000 43.560000 19 20 19 0
8.360000 22.220000 43.560000 21 22 21 0
8.580000 22.220000 43.560000 40 41 40 0
8.800000 22.220000 43.560000 83 84 83 0
9.020000 22.220000 43.560000 74 75 74 0
9.240000 22.220000 43.560000 83 84 83 0
9.460000 22.220000 43.560000 79 80 79 0
9.680000 22.220000 43.560000 57 58 57 0
9.900000 22.220000 43.560000 45 46 45 0
10.120000 22.220000 43.560000 45 46 45 0
10.340000 22.220000 43.560000 58 59 58 0
10.560000 22.220000 43.560000 58 59 58 0
10.780000 22.220000 43.560000 69 70 69 0
11.000000 22.220000 43.560000 74 75 74 0
11.220000 22.220000 43.560000 75 76 75 0
11.440000 22.220000 43.560000 73 74 73 0
11.660000 22.220000 43.560000 72 73 72 0
11.880000 22.220000 43.560000 77 78 77 0
12.100000 22.220000 43.560000 85 86 85 0
12.320000 22.220000 43.560000 81 82 81 0
12.540000 22.220000 43.560000 83 84 83 0
12.760000 22.220000 43.560000 88 89 88 0
12.980000 22.220000 43.560000 87 88 87 0
13.200000 22.220000 43.560000 87 88 87 0
13.420000 22.220000 43.560000 87 88 87 0
13.640000 22.220000 43.560000 88 89 88 0
13.860000 22.220000 43.560000 79 80 79 0
14.080000 22.220000 43.560000 78 79 78 0
14.300000 22.220000 43.560000 76 77 76 0
14.520000 22.220000 43.560000 71 72 71 0
14.740000 22.220000 43.560000 80 81 80 0
14.960000 22.220000 43.560000 81 82 81 0
15.180000 22.220000 43.560000 79 80 79 0
15.400000 22.220000 43.560000 85 86 85 0
15.620000 22.220000 43.560000 86 87 86 0
15.840000 22.220000 43.560000 84 85 84 0
16.060000 22.220000 43.560000 92 93 92 0
16.280000 22.220000 43.560000 94 95 94 0
16.500000 22.220000 43.560000 83 84 83 0
16.720000 22.220000 43.560000 91 92 91 0
16.940000 22.220000 43.560000 103 104 103 0
17.160000 22.220000 43.560000 112 113 112 0
17.380000 22.220000 43.560000 116 117 116 0
17.600000 22.220000 43.560000 119 120 119 0
17.820000 22.220000 43.560000 119 120 119 0
18.040000 22.220000 43.560000 116 117 116 0
18.260000 22.220000 43.560000 115 116 115 0
18.480000 22.220000 43.560000 118 119 118 0
18.700000 22.220000 43.560000 118 119 118 0
18.920000 22.220000 43.560000 119 120 119 0
19.140000 22.220000 43.560000 115 116 115 0
19.360000 22.220000 43.560000 112 113 112 0
19.580000 22.220000 43.560000 108 109 108 0
19.800000 22.220000 43.560000 106 107 106 0
20.020000 22.220000 43.560000 104 105 104 0
20.240000 22.220000 43.560000 98 99 98 0
20.460000 22.220000 43.560000 91 92 91 0
20.680000 22.220000 43.560000 91 92 91 0
20.900000 22.220000 43.560000 92 93 92 0
21.120000 22.220000 43.560000 97 98 97 0
21.340000 22.220000 43.560000 97 98 97 0
21.560000 22.220000 43.560000 99 100 99 0
21.780000 22.220000 43.560000 99 100 99 0
22.000000 22.220000 43.560000 101 102 101 0
22.220000 22.220000 43.560000 101 102 101 0
22.440000 22.220000 43.560000 98 99 98 0
22.660000 22.220000 43.560000 97 98 97 0
22.880000 22.220000 43.560000 97 98 97 0
23.100000 22.220000 43.560000 100 101 100 0
23.320000 22.220000 43.560000 103 104 103 0
23.540000 22.220000 43.560000 108 109 108 0
23.760000 22.220000 43.560000 110 111 110 0
23.980000 22.220000 43.560000 113 114 113 0
24.200000 22.220000 43.560000 114 115 114 0
24.420000 22.220000 43.560000 111 112 111 0
24.640000 22.220000 43.560000 109 110 109 0
24.860000 22.220000 43.560000 114 115 114 0
25.080000 22.220000 43.560000 115 116 115 0
25.300000 22.220000 43.560000 110 111 110 0
25.520000 22.220000 43.560000 120 121 120 0
25.740000 22.220000 43.560000 128 129 128 0
25.960000 22.220000 43.560000 115 116 115 0
26.180000 22.220000 43.560000 117 118 117 0
26.400000 22.220000 43.560000 133 134 133 0
26.620000 22.220000 43.560000 159 160 159 0
26.840000 22.220000 43.560000 173 174 173 0
27.060000 22.220000 43.560000 165 166 165 0
27.280000 22.220000 43.560000 117 118 117 0
27.500000 22.220000 42.460000 50 51 50 0
27.720000 22.220000 29.260000 42 43 42 0
27.940000 22.220000 29.700000 38 39 38 0
28.160000 22.220000 30.140000 34 35 34 0
28.380000 22.220000 30.580000 34 35 34 0
28.600000 22.220000 30.800000 33 34 33 0
28.820000 22.220000 30.800000 32 33 32 0
29.040000 22.220000 31.020000 30 31 30 0
29.260000 22.220000 31.020000 31 32 31 0
29.480000 22.220000 31.240000 30 31 30 0
29.700000 22.220000 31.240000 30 31 30 0
29.920000 22.220000 31.240000 32 33 32 0
30.140000 22.220000 20.900000 34 35 34 0
30.360000 22.220000 9.460000 42 43 42 0
30.580000 22.220000 43.560000 51 52 51 0
30.800000 22.220000 43.560000 63 64 63 0
31.020000 22.220000 43.560000 73 74 73 0
31.240000 22.220000 43.560000 81 82 81 0
31.460000 22.220000 43.560000 87 88 87 0
31.680000 22.220000 43.560000 90 91 90 0
31.900000 22.220000 43.560000 92 93 92 0
32.120000 22.220000 43.560000 94 95 94 0
32.340000 22.220000 43.560000 94 95 94 0
32.560000 22.220000 43.560000 95 96 95 0
32.780000 22.220000 43.560000 96 97 96 0
33.000000 22.220000 43.560000 97 98 97 0
33.220000 22.220000 43.560000 97 98 97 0
33.440000 22.220000 43.560000 98 99 98 0
33.660000 22.220000 43.560000 98 99 98 0
33.880000 22.220000 43.560000 97 98 97 0
34.100000 22.220000 43.560000 98 99 98 0
34.320000 22.220000 43.560000 98 99 98 0
34.540000 22.220000 43.560000 98 99 98 0
34.760000 22.220000 43.560000 98 99 98 0
34.980000 22.220000 43.560000 99 100 99 0
0.000000 22.440000 43.560000 91 92 91 0
0.220000 22.440000 43.560000 82 83 82 0
0.440000 22.440000 43.560000 73 74 73 0
0.660000 22.440000 43.560000 72 73 72 0
0.880000 22.440000 43.560000 73 74 73 0
1.100000 22.440000 43.560000 72 73 72 0
1.320000 22.440000 43.560000 71 72 71 0
1.540000 22.440000 43.560000 71 72 71 0
1.760000 22.440000 43.560000 71 72 71 0
1.980000 22.440000 43.560000 71 72 71 0
2.200000 22.440000 13.860000 81 82 81 0
2.420000 22.440000 35.860000 102 103 102 0
2.640000 22.440000 43.560000 108 109 108 0
2.860000 22.440000 35.200000 107 108 107 0
3.080000 22.440000 43.560000 122 123 122 0
3.300000 22.440000 43.560000 127 128 127 0
3.520000 22.440000 43.120000 120 121 120 0
3.740000 22.440000 42.900000 120 121 120 0
3.960000 22.440000 42.680000 116 117 116 0
4.180000 22.440000 42.460000 107 108 107 0
4.400000 22.440000 42.240000 101 102 101 0
4.620000 22.440000 42.020000 86 87 86 0
4.840000 22.440000 41.800000 78 79 78 0
5.060000 22.440000 41.800000 73 74 73 0
5.280000 22.440000 43.560000 62 63 62 0
5.500000 22.440000 41.360000 58 59 58 0
5.720000 22.440000 40.920000 54 55 54 0
5.940000 22.440000 40.700000 49 50 49 0
6.160000 22.440000 40.480000 48 49 48 0
6.380000 22.440000 43.560000 53 54 53 0
6.600000 22.440000 43.560000 57 58 57 0
6.820000 22.440000 43.560000 60 61 60 0
7.040000 22.440000 43.560000 60 61 60 0
7.260000 22.440000 43.560000 58 59 58 0
7.480000 22.440000 43.560000 49 50 49 0
7.700000 22.440000 43.560000 25 26 25 0
7.920000 22.440000 43.560000 20 21 20 0
8.140000 22.440000 43.560000 20 21 20 0
8.360000 22.440000 43.560000 31 32 31 0
8.580000 22.440000 43.560000 55 56 55 0
8.800000 22.440000 43.560000 87 88 87 0
9.020000 22.440000 43.560000 85 86 85 0
9.240000 22.440000 43.560000 80 81 80 0
9.460000 22.440000 43.560000 63 64 63 0
9.680000 22.440000 43.560000 48 49 48 0
9.900000 22.440000 43.560000 56 57 56 0
10.120000 22.440000 43.560000 56 57 56 0
10.340000 22.440000 43.560000 67 68 67 0
