ply
format ascii 1.0
element vertex 1215
property float x
property float y
property float z
property uchar red
property uchar green
property uchar blue
property uchar alpha
end_header
11.000000 0.220000 3.740000 24 19 10 0
11.220000 0.220000 3.740000 24 19 10 0
11.440000 0.220000 3.520000 24 21 11 0
11.660000 0.220000 3.960000 25 22 12 0
11.880000 0.220000 5.720000 50 31 11 0
12.100000 0.220000 43.560000 107 88 68 0
12.320000 0.220000 43.560000 152 99 63 0
12.540000 0.220000 43.560000 160 107 71 0
12.760000 0.220000 43.560000 168 109 72 0
12.980000 0.220000 43.560000 168 109 72 0
13.200000 0.220000 43.560000 171 110 74 0
13.420000 0.220000 43.560000 171 110 74 0
13.640000 0.220000 43.560000 169 113 75 0
13.860000 0.220000 43.560000 168 112 74 0
14.080000 0.220000 43.560000 167 111 73 0
14.300000 0.220000 43.560000 165 109 71 0
14.520000 0.220000 43.560000 166 107 70 0
14.740000 0.220000 43.560000 166 107 70 0
14.960000 0.220000 43.560000 165 104 68 0
15.180000 0.220000 43.560000 168 107 71 0
15.400000 0.220000 43.560000 169 110 73 0
15.620000 0.220000 43.560000 174 115 78 0
15.840000 0.220000 43.560000 176 117 78 0
16.060000 0.220000 43.560000 173 114 75 0
16.280000 0.220000 43.560000 171 112 75 0
16.500000 0.220000 43.560000 171 112 75 0
16.720000 0.220000 43.560000 170 111 76 0
16.940000 0.220000 43.560000 171 112 77 0
17.160000 0.220000 43.560000 169 115 76 0
17.380000 0.220000 43.560000 167 113 74 0
17.600000 0.220000 43.560000 166 112 73 0
17.820000 0.220000 43.560000 165 111 72 0
18.040000 0.220000 43.560000 167 111 73 0
18.260000 0.220000 43.560000 167 111 73 0
18.480000 0.220000 43.560000 163 113 75 0
18.700000 0.220000 43.560000 162 112 74 0
18.920000 0.220000 43.560000 151 114 83 0
19.140000 0.220000 43.560000 150 113 82 0
19.360000 0.220000 43.560000 133 111 95 0
20.020000 0.220000 8.360000 60 48 43 0
20.240000 0.220000 9.680000 44 35 27 0
20.460000 0.220000 3.300000 40 31 23 0
20.680000 0.220000 4.180000 35 25 19 0
20.900000 0.220000 3.740000 33 23 17 0
21.120000 0.220000 3.740000 32 21 14 0
21.340000 0.220000 4.180000 32 21 14 0
21.560000 0.220000 3.960000 31 19 14 0
21.780000 0.220000 3.960000 31 19 14 0
22.000000 0.220000 3.520000 30 21 13 0
22.220000 0.220000 3.740000 30 21 13 0
22.440000 0.220000 3.960000 29 19 13 0
22.660000 0.220000 3.740000 29 19 13 0
22.880000 0.220000 3.740000 29 20 12 0
23.100000 0.220000 3.740000 29 20 12 0
23.320000 0.220000 3.740000 29 19 13 0
23.540000 0.220000 3.740000 29 19 13 0
23.760000 0.220000 3.520000 29 20 12 0
23.980000 0.220000 3.520000 29 20 12 0
24.200000 0.220000 3.300000 29 19 13 0
24.420000 0.220000 3.520000 29 19 13 0
24.640000 0.220000 3.300000 28 19 11 0
24.860000 0.220000 3.520000 29 20 12 0
25.080000 0.220000 3.520000 29 19 13 0
25.300000 0.220000 3.520000 28 18 12 0
25.520000 0.220000 3.520000 27 19 11 0
25.740000 0.220000 3.300000 27 19 11 0
25.960000 0.220000 3.740000 28 20 13 0
26.180000 0.220000 3.520000 27 19 12 0
26.400000 0.220000 3.300000 27 19 12 0
26.620000 0.220000 3.520000 27 19 12 0
26.840000 0.220000 3.300000 27 19 12 0
27.060000 0.220000 3.520000 27 19 12 0
27.280000 0.220000 3.300000 27 19 11 0
27.500000 0.220000 3.300000 27 19 11 0
27.720000 0.220000 3.300000 27 19 14 0
27.940000 0.220000 3.520000 26 18 13 0
28.160000 0.220000 3.300000 24 19 11 0
28.380000 0.220000 3.080000 24 19 11 0
28.600000 0.220000 3.300000 26 18 10 0
28.820000 0.220000 3.300000 27 19 11 0
29.040000 0.220000 3.300000 27 19 12 0
29.260000 0.220000 3.520000 27 19 12 0
29.480000 0.220000 3.300000 27 19 12 0
29.700000 0.220000 3.300000 27 19 12 0
29.920000 0.220000 3.300000 24 19 11 0
30.140000 0.220000 3.300000 24 19 11 0
30.360000 0.220000 3.300000 24 19 10 0
30.580000 0.220000 3.300000 24 19 10 0
30.800000 0.220000 3.520000 24 19 11 0
31.020000 0.220000 3.520000 24 19 11 0
31.240000 0.220000 3.300000 25 20 12 0
31.460000 0.220000 3.080000 24 19 11 0
31.680000 0.220000 3.300000 23 18 9 0
31.900000 0.220000 3.300000 24 19 10 0
32.120000 0.220000 3.300000 24 19 10 0
32.340000 0.220000 3.520000 25 20 11 0
32.560000 0.220000 3.520000 25 20 11 0
32.780000 0.220000 3.520000 25 20 11 0
33.000000 0.220000 3.520000 24 19 10 0
33.220000 0.220000 3.520000 24 19 10 0
33.440000 0.220000 3.520000 24 19 10 0
33.660000 0.220000 3.300000 24 19 10 0
33.880000 0.220000 3.300000 23 18 7 0
34.100000 0.220000 3.520000 24 19 8 0
34.320000 0.220000 3.300000 24 19 10 0
34.540000 0.220000 3.300000 24 19 10 0
34.760000 0.220000 3.520000 24 19 10 0
34.980000 0.220000 3.520000 24 19 10 0
0.000000 0.440000 3.300000 8 10 0 0
0.220000 0.440000 3.300000 8 10 0 0
0.440000 0.440000 3.080000 8 10 0 0
0.660000 0.440000 3.080000 7 9 0 0
0.880000 0.440000 3.300000 8 10 0 0
1.100000 0.440000 3.300000 8 10 0 0
1.320000 0.440000 3.300000 8 10 0 0
1.540000 0.440000 3.080000 8 10 0 0
1.760000 0.440000 3.300000 8 10 0 0
1.980000 0.440000 3.300000 8 10 0 0
2.200000 0.440000 3.080000 9 11 1 0
2.420000 0.440000 3.080000 9 11 1 0
2.640000 0.440000 3.300000 9 11 1 0
2.860000 0.440000 3.080000 9 11 1 0
3.080000 0.440000 3.300000 10 11 1 0
3.300000 0.440000 2.860000 11 12 2 0
3.520000 0.440000 3.080000 11 12 2 0
3.740000 0.440000 3.300000 11 12 2 0
3.960000 0.440000 3.300000 13 12 3 0
4.180000 0.440000 3.080000 14 13 4 0
4.400000 0.440000 3.300000 12 13 3 0
4.620000 0.440000 3.080000 12 13 3 0
4.840000 0.440000 3.300000 13 12 3 0
5.060000 0.440000 3.300000 14 13 4 0
5.280000 0.440000 3.300000 14 13 3 0
5.500000 0.440000 3.300000 15 14 4 0
5.720000 0.440000 3.520000 14 13 4 0
5.940000 0.440000 3.080000 15 14 5 0
6.160000 0.440000 3.080000 15 14 5 0
6.380000 0.440000 3.080000 15 14 5 0
6.600000 0.440000 3.300000 18 15 5 0
6.820000 0.440000 2.860000 18 15 5 0
7.040000 0.440000 3.080000 18 15 5 0
7.260000 0.440000 3.080000 18 15 5 0
7.480000 0.440000 3.080000 20 15 6 0
7.700000 0.440000 3.080000 20 15 6 0
7.920000 0.440000 3.080000 19 15 7 0
8.140000 0.440000 3.520000 19 15 7 0
8.360000 0.440000 3.080000 21 16 7 0
8.580000 0.440000 2.860000 21 16 7 0
8.800000 0.440000 3.080000 21 16 7 0
9.020000 0.440000 3.080000 21 16 7 0
9.240000 0.440000 2.860000 23 15 7 0
9.460000 0.440000 3.080000 24 16 8 0
9.680000 0.440000 2.860000 22 17 8 0
9.900000 0.440000 2.860000 22 17 8 0
10.120000 0.440000 3.080000 22 17 8 0
10.340000 0.440000 3.080000 23 18 9 0
10.560000 0.440000 3.300000 23 18 9 0
10.780000 0.440000 3.300000 23 18 9 0
11.000000 0.440000 3.080000 25 17 9 0
11.220000 0.440000 3.300000 26 18 10 0
11.440000 0.440000 3.300000 28 19 9 0
11.660000 0.440000 3.520000 30 21 11 0
11.880000 0.440000 43.560000 104 48 12 0
12.100000 0.440000 43.560000 148 92 56 0
12.320000 0.440000 43.560000 161 98 62 0
12.540000 0.440000 43.560000 170 107 71 0
12.760000 0.440000 43.560000 174 107 73 0
12.980000 0.440000 43.560000 174 107 73 0
13.200000 0.440000 43.560000 174 108 71 0
13.420000 0.440000 43.560000 175 109 72 0
13.640000 0.440000 43.560000 175 110 75 0
13.860000 0.440000 43.560000 176 111 76 0
14.080000 0.440000 43.560000 173 108 73 0
14.300000 0.440000 43.560000 174 109 74 0
14.520000 0.440000 43.560000 175 110 75 0
14.740000 0.440000 43.560000 175 110 75 0
14.960000 0.440000 43.560000 173 108 71 0
15.180000 0.440000 43.560000 175 110 73 0
15.400000 0.440000 43.560000 178 113 78 0
15.620000 0.440000 43.560000 179 114 79 0
15.840000 0.440000 43.560000 179 114 79 0
16.060000 0.440000 43.560000 180 115 80 0
16.280000 0.440000 43.560000 177 112 77 0
16.500000 0.440000 43.560000 177 112 77 0
16.720000 0.440000 43.560000 178 112 75 0
16.940000 0.440000 43.560000 178 112 75 0
17.160000 0.440000 43.560000 177 112 77 0
17.380000 0.440000 43.560000 176 111 76 0
17.600000 0.440000 43.560000 175 112 76 0
17.820000 0.440000 43.560000 174 111 75 0
18.040000 0.440000 43.560000 175 110 75 0
18.260000 0.440000 43.560000 177 112 77 0
18.480000 0.440000 43.560000 178 113 78 0
18.700000 0.440000 43.560000 174 109 74 0
18.920000 0.440000 43.560000 171 110 74 0
19.140000 0.440000 43.560000 169 108 72 0
19.360000 0.440000 43.560000 171 107 74 0
19.580000 0.440000 43.560000 172 108 75 0
19.800000 0.440000 43.560000 165 111 78 0
20.020000 0.440000 43.560000 155 101 68 0
20.240000 0.440000 43.560000 136 94 65 0
20.460000 0.440000 43.560000 128 86 57 0
20.680000 0.440000 43.560000 101 75 55 0
20.900000 0.440000 7.260000 79 53 33 0
21.120000 0.440000 5.500000 47 36 29 0
21.340000 0.440000 3.740000 36 25 18 0
21.560000 0.440000 3.960000 35 21 15 0
21.780000 0.440000 3.300000 34 20 14 0
22.000000 0.440000 3.300000 35 21 15 0
22.220000 0.440000 3.300000 34 20 14 0
22.440000 0.440000 3.300000 33 19 13 0
22.660000 0.440000 3.300000 33 19 13 0
22.880000 0.440000 3.300000 31 19 14 0
23.100000 0.440000 3.080000 30 18 13 0
23.320000 0.440000 3.300000 33 19 13 0
23.540000 0.440000 3.080000 33 19 13 0
23.760000 0.440000 3.300000 30 19 12 0
23.980000 0.440000 3.080000 30 19 12 0
24.200000 0.440000 3.300000 30 18 13 0
24.420000 0.440000 3.080000 30 18 13 0
24.640000 0.440000 3.080000 29 19 13 0
24.860000 0.440000 2.860000 29 19 13 0
25.080000 0.440000 3.080000 30 19 12 0
25.300000 0.440000 3.080000 30 19 12 0
25.520000 0.440000 3.080000 30 19 12 0
25.740000 0.440000 3.080000 30 19 12 0
25.960000 0.440000 3.080000 29 17 12 0
26.180000 0.440000 3.080000 29 17 12 0
26.400000 0.440000 3.080000 28 18 12 0
26.620000 0.440000 3.080000 28 18 12 0
26.840000 0.440000 3.080000 28 18 12 0
27.060000 0.440000 2.860000 28 18 12 0
27.280000 0.440000 2.860000 28 19 11 0
27.500000 0.440000 2.860000 28 19 11 0
27.720000 0.440000 2.860000 28 18 12 0
27.940000 0.440000 2.860000 28 18 12 0
28.160000 0.440000 2.860000 27 17 11 0
28.380000 0.440000 3.080000 27 17 11 0
28.600000 0.440000 2.860000 27 17 11 0
28.820000 0.440000 3.080000 28 18 12 0
29.040000 0.440000 3.080000 27 19 11 0
29.260000 0.440000 3.080000 27 19 11 0
29.480000 0.440000 2.860000 27 17 11 0
29.700000 0.440000 2.860000 27 17 11 0
29.920000 0.440000 2.860000 27 19 12 0
30.140000 0.440000 3.080000 26 18 11 0
30.360000 0.440000 3.080000 26 18 11 0
30.580000 0.440000 2.860000 26 18 11 0
30.800000 0.440000 3.080000 27 19 11 0
31.020000 0.440000 2.860000 26 18 10 0
31.240000 0.440000 2.860000 27 19 11 0
31.460000 0.440000 2.640000 27 19 11 0
31.680000 0.440000 2.640000 26 18 10 0
31.900000 0.440000 3.080000 27 19 11 0
32.120000 0.440000 2.860000 27 19 12 0
32.340000 0.440000 2.640000 27 19 12 0
32.560000 0.440000 2.860000 26 18 10 0
32.780000 0.440000 3.080000 26 18 10 0
33.000000 0.440000 3.080000 26 18 10 0
33.220000 0.440000 3.080000 26 18 10 0
33.440000 0.440000 3.080000 26 18 10 0
33.660000 0.440000 2.860000 26 18 10 0
33.880000 0.440000 2.860000 26 18 11 0
34.100000 0.440000 2.860000 26 18 11 0
34.320000 0.440000 2.860000 24 19 10 0
34.540000 0.440000 3.080000 24 19 10 0
34.760000 0.440000 2.860000 26 18 10 0
34.980000 0.440000 3.080000 26 18 10 0
0.000000 0.660000 2.640000 7 9 0 0
0.220000 0.660000 2.640000 8 10 0 0
0.440000 0.660000 2.420000 7 9 0 0
0.660000 0.660000 2.640000 7 9 0 0
0.880000 0.660000 2.860000 8 10 0 0
1.100000 0.660000 2.420000 8 10 0 0
1.320000 0.660000 2.420000 8 10 0 0
1.540000 0.660000 2.640000 9 11 1 0
1.760000 0.660000 2.640000 8 10 0 0
1.980000 0.660000 2.640000 9 11 1 0
2.200000 0.660000 2.860000 9 11 1 0
2.420000 0.660000 2.420000 9 11 1 0
2.640000 0.660000 2.640000 10 12 2 0
2.860000 0.660000 2.420000 9 11 1 0
3.080000 0.660000 2.200000 11 12 2 0
3.300000 0.660000 2.640000 11 12 2 0
3.520000 0.660000 2.200000 10 11 1 0
3.740000 0.660000 2.640000 12 13 3 0
3.960000 0.660000 2.420000 13 12 3 0
4.180000 0.660000 2.640000 13 12 3 0
4.400000 0.660000 2.640000 11 12 2 0
4.620000 0.660000 2.420000 12 13 3 0
4.840000 0.660000 2.420000 13 12 3 0
5.060000 0.660000 2.420000 14 13 4 0
5.280000 0.660000 2.420000 14 13 3 0
5.500000 0.660000 2.420000 15 14 4 0
5.720000 0.660000 2.200000 15 14 5 0
5.940000 0.660000 2.640000 15 14 5 0
6.160000 0.660000 2.420000 15 14 5 0
6.380000 0.660000 2.640000 15 14 5 0
6.600000 0.660000 2.420000 17 14 4 0
6.820000 0.660000 2.200000 19 16 6 0
7.040000 0.660000 2.420000 19 16 6 0
7.260000 0.660000 2.640000 19 16 6 0
7.480000 0.660000 2.640000 20 15 6 0
7.700000 0.660000 2.640000 21 16 7 0
7.920000 0.660000 2.860000 19 15 7 0
8.140000 0.660000 2.860000 19 15 7 0
8.360000 0.660000 2.640000 21 16 7 0
8.580000 0.660000 2.200000 21 16 7 0
8.800000 0.660000 2.420000 21 16 7 0
9.020000 0.660000 2.200000 20 15 6 0
9.240000 0.660000 2.420000 24 16 8 0
9.460000 0.660000 2.420000 24 16 8 0
9.680000 0.660000 2.200000 22 17 8 0
9.900000 0.660000 2.200000 23 18 9 0
10.120000 0.660000 2.420000 23 18 9 0
10.340000 0.660000 2.640000 23 18 9 0
10.560000 0.660000 2.420000 23 18 9 0
10.780000 0.660000 2.640000 23 18 9 0
11.000000 0.660000 2.420000 27 19 11 0
11.220000 0.660000 2.640000 27 19 11 0
11.440000 0.660000 2.640000 28 19 9 0
11.660000 0.660000 3.300000 32 23 13 0
11.880000 0.660000 43.560000 122 66 30 0
12.100000 0.660000 43.560000 153 97 61 0
12.320000 0.660000 43.560000 164 101 65 0
12.540000 0.660000 43.560000 171 108 72 0
12.760000 0.660000 43.560000 175 108 74 0
12.980000 0.660000 43.560000 176 109 75 0
13.200000 0.660000 43.560000 176 110 73 0
13.420000 0.660000 43.560000 178 112 75 0
13.640000 0.660000 43.560000 176 111 76 0
13.860000 0.660000 43.560000 176 111 76 0
14.080000 0.660000 43.560000 175 110 75 0
14.300000 0.660000 43.560000 176 111 76 0
14.520000 0.660000 43.560000 177 112 77 0
14.740000 0.660000 43.560000 175 110 75 0
14.960000 0.660000 43.560000 175 110 73 0
15.180000 0.660000 43.560000 175 110 73 0
15.400000 0.660000 43.560000 178 113 78 0
15.620000 0.660000 43.560000 178 113 78 0
15.840000 0.660000 43.560000 177 112 77 0
16.060000 0.660000 43.560000 179 114 79 0
16.280000 0.660000 43.560000 178 113 78 0
16.500000 0.660000 43.560000 178 113 78 0
16.720000 0.660000 43.560000 178 112 75 0
16.940000 0.660000 43.560000 178 112 75 0
17.160000 0.660000 43.560000 177 112 77 0
17.380000 0.660000 43.560000 177 112 77 0
17.600000 0.660000 43.560000 174 111 75 0
17.820000 0.660000 43.560000 176 113 77 0
18.040000 0.660000 43.560000 176 111 76 0
18.260000 0.660000 43.560000 176 111 76 0
18.480000 0.660000 43.560000 176 111 76 0
18.700000 0.660000 43.560000 175 110 75 0
18.920000 0.660000 43.560000 172 111 75 0
19.140000 0.660000 43.560000 172 111 75 0
19.360000 0.660000 43.560000 176 112 79 0
19.580000 0.660000 43.560000 176 112 79 0
19.800000 0.660000 43.560000 169 115 82 0
20.020000 0.660000 43.560000 172 118 85 0
20.240000 0.660000 43.560000 162 120 91 0
20.460000 0.660000 43.560000 160 118 89 0
20.680000 0.660000 43.560000 145 119 99 0
20.900000 0.660000 43.560000 138 112 92 0
21.120000 0.660000 43.560000 113 102 95 0
21.340000 0.660000 43.560000 83 72 65 0
21.560000 0.660000 5.500000 57 43 37 0
21.780000 0.660000 4.180000 46 32 26 0
22.000000 0.660000 3.520000 40 26 20 0
22.220000 0.660000 3.080000 37 23 17 0
22.440000 0.660000 2.860000 35 21 15 0
22.660000 0.660000 2.860000 34 20 14 0
22.880000 0.660000 2.860000 31 19 14 0
23.100000 0.660000 3.080000 32 20 15 0
23.320000 0.660000 2.860000 34 20 14 0
23.540000 0.660000 2.640000 34 20 14 0
23.760000 0.660000 2.640000 31 20 13 0
23.980000 0.660000 2.420000 31 20 13 0
24.200000 0.660000 2.640000 30 18 13 0
24.420000 0.660000 2.640000 31 19 14 0
24.640000 0.660000 2.420000 30 20 14 0
24.860000 0.660000 2.640000 29 19 13 0
25.080000 0.660000 2.640000 30 19 12 0
25.300000 0.660000 2.420000 30 19 12 0
25.520000 0.660000 2.420000 30 19 12 0
25.740000 0.660000 2.200000 29 18 11 0
25.960000 0.660000 2.420000 30 18 13 0
26.180000 0.660000 2.200000 29 17 12 0
26.400000 0.660000 2.420000 28 18 12 0
26.620000 0.660000 2.200000 28 18 12 0
26.840000 0.660000 2.420000 28 18 12 0
27.060000 0.660000 2.200000 28 18 12 0
27.280000 0.660000 2.200000 28 19 11 0
27.500000 0.660000 2.420000 28 19 11 0
27.720000 0.660000 2.200000 29 19 13 0
27.940000 0.660000 2.420000 28 18 12 0
28.160000 0.660000 2.200000 28 18 12 0
28.380000 0.660000 2.420000 27 17 11 0
28.600000 0.660000 2.640000 27 17 11 0
28.820000 0.660000 2.200000 28 18 12 0
29.040000 0.660000 2.200000 27 19 11 0
29.260000 0.660000 2.420000 27 19 11 0
29.480000 0.660000 2.200000 27 17 11 0
29.700000 0.660000 2.200000 28 18 12 0
29.920000 0.660000 2.200000 27 19 12 0
30.140000 0.660000 2.200000 26 18 11 0
30.360000 0.660000 2.200000 27 19 12 0
30.580000 0.660000 2.200000 27 19 12 0
30.800000 0.660000 2.200000 27 19 11 0
31.020000 0.660000 1.980000 27 19 11 0
31.240000 0.660000 2.200000 27 19 11 0
31.460000 0.660000 2.200000 26 18 10 0
31.680000 0.660000 2.420000 26 18 10 0
31.900000 0.660000 2.200000 27 19 11 0
32.120000 0.660000 2.200000 27 19 12 0
32.340000 0.660000 2.420000 27 19 12 0
32.560000 0.660000 2.200000 26 18 10 0
32.780000 0.660000 2.200000 26 18 10 0
33.000000 0.660000 2.200000 27 19 11 0
33.220000 0.660000 2.420000 26 18 10 0
33.440000 0.660000 2.200000 26 18 10 0
33.660000 0.660000 2.200000 26 18 10 0
33.880000 0.660000 2.420000 26 18 11 0
34.100000 0.660000 2.200000 25 17 10 0
34.320000 0.660000 2.420000 23 18 9 0
34.540000 0.660000 2.420000 23 18 9 0
34.760000 0.660000 2.420000 26 18 10 0
34.980000 0.660000 2.200000 26 18 10 0
0.000000 0.880000 1.980000 5 10 0 0
0.220000 0.880000 2.200000 6 11 0 0
0.440000 0.880000 2.200000 5 10 0 0
0.660000 0.880000 1.980000 6 11 0 0
0.880000 0.880000 1.980000 8 10 0 0
1.100000 0.880000 1.980000 8 10 0 0
1.320000 0.880000 1.760000 6 11 0 0
1.540000 0.880000 2.200000 6 11 0 0
1.760000 0.880000 1.980000 9 12 0 0
1.980000 0.880000 2.200000 9 12 0 0
2.200000 0.880000 1.980000 9 11 1 0
2.420000 0.880000 1.980000 9 11 1 0
2.640000 0.880000 1.980000 10 12 2 0
2.860000 0.880000 1.980000 9 11 1 0
3.080000 0.880000 1.980000 10 12 2 0
3.300000 0.880000 2.200000 10 12 2 0
3.520000 0.880000 1.980000 12 13 2 0
3.740000 0.880000 1.980000 11 12 1 0
3.960000 0.880000 1.980000 12 13 3 0
4.180000 0.880000 1.980000 12 13 3 0
4.400000 0.880000 1.980000 13 12 3 0
4.620000 0.880000 1.980000 13 12 3 0
4.840000 0.880000 1.980000 13 12 2 0
5.060000 0.880000 2.200000 14 13 3 0
5.280000 0.880000 1.980000 14 13 3 0
5.500000 0.880000 1.980000 15 14 4 0
5.720000 0.880000 1.760000 15 14 4 0
5.940000 0.880000 1.980000 15 14 4 0
6.160000 0.880000 1.980000 17 14 4 0
6.380000 0.880000 1.980000 18 15 5 0
6.600000 0.880000 1.760000 18 15 5 0
6.820000 0.880000 1.980000 18 15 5 0
7.040000 0.880000 1.980000 19 16 6 0
7.260000 0.880000 1.980000 19 16 6 0
7.480000 0.880000 1.980000 19 16 6 0
7.700000 0.880000 1.760000 20 17 7 0
7.920000 0.880000 1.980000 19 16 6 0
8.140000 0.880000 1.980000 19 16 6 0
8.360000 0.880000 1.760000 20 17 7 0
8.580000 0.880000 1.980000 20 17 7 0
8.800000 0.880000 1.760000 20 17 7 0
9.020000 0.880000 1.760000 21 18 8 0
9.240000 0.880000 1.980000 22 17 8 0
9.460000 0.880000 1.980000 22 17 8 0
9.680000 0.880000 1.980000 22 17 8 0
9.900000 0.880000 1.760000 23 18 9 0
10.120000 0.880000 1.980000 22 17 8 0
10.340000 0.880000 1.980000 23 18 9 0
10.560000 0.880000 1.760000 23 18 9 0
10.780000 0.880000 1.760000 24 19 10 0
11.000000 0.880000 1.980000 26 19 8 0
11.220000 0.880000 1.980000 27 20 9 0
11.440000 0.880000 2.200000 36 17 6 0
11.660000 0.880000 3.520000 45 26 15 0
11.880000 0.880000 43.560000 138 78 47 0
12.100000 0.880000 43.560000 160 100 69 0
12.320000 0.880000 43.560000 171 104 70 0
12.540000 0.880000 43.560000 173 106 72 0
12.760000 0.880000 43.560000 176 111 74 0
12.980000 0.880000 43.560000 175 110 73 0
13.200000 0.880000 43.560000 179 114 79 0
13.420000 0.880000 43.560000 179 114 79 0
13.640000 0.880000 43.560000 177 112 77 0
13.860000 0.880000 43.560000 178 113 78 0
14.080000 0.880000 43.560000 178 111 77 0
14.300000 0.880000 43.560000 178 111 77 0
14.520000 0.880000 43.560000 177 112 75 0
14.740000 0.880000 43.560000 175 110 73 0
14.960000 0.880000 43.560000 175 110 75 0
15.180000 0.880000 43.560000 176 111 76 0
15.400000 0.880000 43.560000 179 114 77 0
15.620000 0.880000 43.560000 180 115 78 0
15.840000 0.880000 43.560000 179 114 79 0
16.060000 0.880000 43.560000 178 113 78 0
16.280000 0.880000 43.560000 179 114 79 0
16.500000 0.880000 43.560000 177 112 77 0
16.720000 0.880000 43.560000 177 112 77 0
16.940000 0.880000 43.560000 178 113 78 0
17.160000 0.880000 43.560000 177 114 78 0
17.380000 0.880000 43.560000 177 114 78 0
17.600000 0.880000 43.560000 175 111 78 0
17.820000 0.880000 43.560000 177 113 80 0
18.040000 0.880000 43.560000 178 113 78 0
18.260000 0.880000 43.560000 177 112 77 0
18.480000 0.880000 43.560000 175 112 76 0
18.700000 0.880000 43.560000 176 113 77 0
18.920000 0.880000 43.560000 176 113 75 0
19.140000 0.880000 43.560000 176 113 75 0
19.360000 0.880000 43.560000 179 116 80 0
19.580000 0.880000 43.560000 178 115 79 0
19.800000 0.880000 43.560000 180 115 80 0
20.020000 0.880000 43.560000 182 117 82 0
20.240000 0.880000 43.560000 180 117 81 0
20.460000 0.880000 43.560000 179 116 80 0
20.680000 0.880000 43.560000 179 116 80 0
20.900000 0.880000 43.560000 178 115 79 0
21.120000 0.880000 43.560000 172 112 79 0
21.340000 0.880000 43.560000 167 107 74 0
21.560000 0.880000 43.560000 140 99 66 0
21.780000 0.880000 43.560000 134 93 60 0
22.000000 0.880000 43.560000 113 81 63 0
22.220000 0.880000 4.840000 92 60 42 0
22.440000 0.880000 4.180000 60 43 28 0
22.660000 0.880000 3.740000 50 33 18 0
22.880000 0.880000 3.080000 39 28 19 0
23.100000 0.880000 2.640000 34 23 14 0
23.320000 0.880000 2.200000 33 22 15 0
23.540000 0.880000 2.200000 32 21 14 0
23.760000 0.880000 1.980000 32 21 14 0
23.980000 0.880000 2.200000 31 20 13 0
24.200000 0.880000 2.200000 30 21 13 0
24.420000 0.880000 2.200000 30 21 13 0
24.640000 0.880000 2.200000 30 21 11 0
24.860000 0.880000 1.760000 30 21 11 0
25.080000 0.880000 1.980000 30 19 12 0
25.300000 0.880000 1.760000 31 20 13 0
25.520000 0.880000 1.760000 30 19 12 0
25.740000 0.880000 1.760000 30 19 12 0
25.960000 0.880000 1.980000 29 20 12 0
26.180000 0.880000 1.760000 28 19 11 0
26.400000 0.880000 1.760000 28 19 11 0
26.620000 0.880000 1.760000 28 19 11 0
26.840000 0.880000 1.540000 28 19 11 0
27.060000 0.880000 1.760000 28 19 11 0
27.280000 0.880000 1.760000 29 20 12 0
27.500000 0.880000 1.760000 28 19 11 0
27.720000 0.880000 1.760000 29 19 13 0
27.940000 0.880000 1.760000 28 18 12 0
28.160000 0.880000 1.760000 27 19 11 0
28.380000 0.880000 1.760000 27 19 11 0
28.600000 0.880000 1.980000 28 19 11 0
28.820000 0.880000 1.760000 28 19 11 0
29.040000 0.880000 1.540000 28 19 11 0
29.260000 0.880000 1.760000 28 19 11 0
29.480000 0.880000 1.760000 26 18 10 0
29.700000 0.880000 1.760000 27 19 11 0
29.920000 0.880000 1.980000 26 18 10 0
30.140000 0.880000 1.760000 26 18 10 0
30.360000 0.880000 1.760000 27 19 11 0
30.580000 0.880000 1.760000 26 18 10 0
30.800000 0.880000 1.760000 27 19 11 0
31.020000 0.880000 1.760000 27 19 11 0
31.240000 0.880000 1.760000 27 19 11 0
31.460000 0.880000 1.760000 26 18 10 0
31.680000 0.880000 1.540000 26 19 8 0
31.900000 0.880000 1.760000 27 20 9 0
32.120000 0.880000 1.760000 27 19 11 0
32.340000 0.880000 1.540000 27 19 11 0
32.560000 0.880000 1.760000 27 19 11 0
32.780000 0.880000 1.980000 26 18 10 0
33.000000 0.880000 1.760000 27 19 11 0
33.220000 0.880000 1.980000 27 19 11 0
33.440000 0.880000 1.760000 24 19 8 0
33.660000 0.880000 1.540000 24 19 8 0
33.880000 0.880000 1.540000 24 19 10 0
34.100000 0.880000 1.760000 24 19 10 0
34.320000 0.880000 1.760000 24 19 8 0
34.540000 0.880000 1.760000 23 18 7 0
34.760000 0.880000 1.760000 23 18 7 0
34.980000 0.880000 1.760000 24 19 8 0
0.000000 1.100000 1.320000 4 9 0 0
0.220000 1.100000 1.320000 5 10 0 0
0.440000 1.100000 1.320000 5 10 0 0
0.660000 1.100000 1.320000 6 11 0 0
0.880000 1.100000 1.320000 8 10 0 0
1.100000 1.100000 1.320000 7 9 0 0
1.320000 1.100000 1.540000 5 10 0 0
1.540000 1.100000 1.320000 5 10 0 0
1.760000 1.100000 1.540000 7 10 0 0
1.980000 1.100000 1.320000 8 11 0 0
2.200000 1.100000 1.540000 9 11 1 0
2.420000 1.100000 1.320000 8 10 0 0
2.640000 1.100000 1.100000 8 10 0 0
2.860000 1.100000 1.320000 9 11 1 0
3.080000 1.100000 1.320000 9 11 1 0
3.300000 1.100000 1.320000 9 11 1 0
3.520000 1.100000 1.540000 11 12 1 0
3.740000 1.100000 1.320000 11 12 1 0
3.960000 1.100000 1.320000 12 13 3 0
4.180000 1.100000 1.100000 12 13 3 0
4.400000 1.100000 1.320000 13 12 3 0
4.620000 1.100000 1.320000 13 12 3 0
4.840000 1.100000 1.540000 13 12 2 0
5.060000 1.100000 1.540000 13 12 2 0
5.280000 1.100000 1.540000 14 13 3 0
5.500000 1.100000 1.100000 14 13 3 0
5.720000 1.100000 1.320000 14 13 3 0
5.940000 1.100000 1.320000 15 14 4 0
6.160000 1.100000 1.540000 17 14 4 0
6.380000 1.100000 1.320000 18 15 5 0
6.600000 1.100000 1.320000 17 14 4 0
6.820000 1.100000 1.320000 18 15 5 0
7.040000 1.100000 1.320000 18 15 5 0
7.260000 1.100000 1.100000 18 15 5 0
7.480000 1.100000 1.320000 18 15 5 0
7.700000 1.100000 1.540000 19 16 6 0
7.920000 1.100000 1.540000 19 16 6 0
8.140000 1.100000 1.100000 19 16 6 0
8.360000 1.100000 1.320000 20 17 7 0
8.580000 1.100000 1.320000 20 17 7 0
8.800000 1.100000 1.320000 20 17 7 0
9.020000 1.100000 1.320000 21 18 8 0
9.240000 1.100000 1.320000 22 17 8 0
9.460000 1.100000 1.100000 22 17 8 0
9.680000 1.100000 1.100000 22 17 8 0
9.900000 1.100000 1.320000 22 17 8 0
10.120000 1.100000 1.100000 22 17 8 0
10.340000 1.100000 1.320000 23 18 9 0
10.560000 1.100000 1.320000 23 18 9 0
10.780000 1.100000 1.320000 24 19 10 0
11.000000 1.100000 1.320000 27 20 9 0
11.220000 1.100000 1.540000 27 20 9 0
11.440000 1.100000 1.760000 38 19 8 0
11.660000 1.100000 3.520000 72 53 42 0
11.880000 1.100000 43.560000 152 92 61 0
12.100000 1.100000 43.560000 162 102 71 0
12.320000 1.100000 43.560000 171 104 70 0
12.540000 1.100000 43.560000 173 106 72 0
12.760000 1.100000 43.560000 175 110 73 0
12.980000 1.100000 43.560000 175 110 73 0
13.200000 1.100000 43.560000 181 116 81 0
13.420000 1.100000 43.560000 180 115 80 0
13.640000 1.100000 43.560000 178 113 78 0
13.860000 1.100000 43.560000 178 113 78 0
14.080000 1.100000 43.560000 177 110 76 0
14.300000 1.100000 43.560000 176 109 75 0
14.520000 1.100000 43.560000 176 111 74 0
14.740000 1.100000 43.560000 176 111 74 0
14.960000 1.100000 43.560000 176 111 76 0
15.180000 1.100000 43.560000 177 112 77 0
15.400000 1.100000 43.560000 179 114 77 0
15.620000 1.100000 43.560000 181 116 79 0
15.840000 1.100000 43.560000 179 114 79 0
16.060000 1.100000 43.560000 179 114 79 0
16.280000 1.100000 43.560000 179 114 79 0
16.500000 1.100000 43.560000 178 113 78 0
16.720000 1.100000 43.560000 181 116 81 0
16.940000 1.100000 43.560000 181 116 81 0
17.160000 1.100000 43.560000 178 115 79 0
17.380000 1.100000 43.560000 178 115 79 0
17.600000 1.100000 43.560000 179 115 82 0
17.820000 1.100000 43.560000 178 114 81 0
18.040000 1.100000 43.560000 179 114 79 0
18.260000 1.100000 43.560000 178 113 78 0
18.480000 1.100000 43.560000 176 113 77 0
18.700000 1.100000 43.560000 177 114 78 0
18.920000 1.100000 43.560000 177 114 76 0
19.140000 1.100000 43.560000 178 115 77 0
19.360000 1.100000 43.560000 180 117 81 0
19.580000 1.100000 43.560000 179 116 80 0
19.800000 1.100000 43.560000 181 116 81 0
20.020000 1.100000 43.560000 181 116 81 0
20.240000 1.100000 43.560000 181 118 82 0
20.460000 1.100000 43.560000 182 119 83 0
20.680000 1.100000 43.560000 182 119 83 0
20.900000 1.100000 43.560000 182 119 83 0
21.120000 1.100000 43.560000 179 119 86 0
21.340000 1.100000 43.560000 177 117 84 0
21.560000 1.100000 43.560000 163 122 89 0
21.780000 1.100000 43.560000 163 122 89 0
22.000000 1.100000 43.560000 153 121 103 0
22.220000 1.100000 43.560000 150 118 100 0
22.440000 1.100000 43.560000 130 113 98 0
22.660000 1.100000 43.560000 118 101 86 0
22.880000 1.100000 43.560000 99 88 79 0
23.100000 1.100000 3.960000 73 62 53 0
23.320000 1.100000 3.520000 56 45 38 0
23.540000 1.100000 2.640000 40 29 22 0
23.760000 1.100000 1.760000 34 23 16 0
23.980000 1.100000 1.540000 33 22 15 0
24.200000 1.100000 1.540000 31 22 14 0
24.420000 1.100000 1.320000 30 21 13 0
24.640000 1.100000 1.540000 30 21 11 0
24.860000 1.100000 1.320000 30 21 11 0
25.080000 1.100000 1.320000 30 19 12 0
25.300000 1.100000 1.320000 30 19 12 0
25.520000 1.100000 1.320000 30 19 12 0
25.740000 1.100000 1.320000 30 19 12 0
25.960000 1.100000 1.320000 29 20 12 0
26.180000 1.100000 1.100000 29 20 12 0
26.400000 1.100000 1.320000 29 20 12 0
26.620000 1.100000 1.320000 29 20 12 0
26.840000 1.100000 1.320000 29 20 12 0
27.060000 1.100000 1.320000 29 20 12 0
27.280000 1.100000 1.320000 29 20 12 0
27.500000 1.100000 1.100000 29 20 12 0
27.720000 1.100000 1.100000 28 18 12 0
27.940000 1.100000 1.100000 28 18 12 0
28.160000 1.100000 1.100000 27 19 11 0
28.380000 1.100000 1.320000 27 19 11 0
28.600000 1.100000 1.100000 28 19 11 0
28.820000 1.100000 1.100000 28 19 11 0
29.040000 1.100000 1.100000 27 18 10 0
29.260000 1.100000 1.100000 29 20 12 0
29.480000 1.100000 1.320000 27 19 11 0
29.700000 1.100000 1.100000 27 19 11 0
29.920000 1.100000 1.100000 27 19 11 0
30.140000 1.100000 1.100000 26 18 10 0
30.360000 1.100000 1.100000 27 19 11 0
30.580000 1.100000 1.100000 27 19 11 0
30.800000 1.100000 0.880000 27 19 11 0
31.020000 1.100000 1.100000 27 19 11 0
31.240000 1.100000 1.100000 26 18 10 0
31.460000 1.100000 1.320000 26 18 10 0
31.680000 1.100000 1.100000 27 20 9 0
31.900000 1.100000 1.100000 26 19 8 0
32.120000 1.100000 1.100000 27 19 11 0
32.340000 1.100000 1.100000 27 19 11 0
32.560000 1.100000 1.100000 26 18 10 0
32.780000 1.100000 1.100000 26 18 10 0
33.000000 1.100000 1.100000 27 19 11 0
33.220000 1.100000 1.320000 27 19 11 0
33.440000 1.100000 1.100000 24 19 8 0
33.660000 1.100000 0.880000 23 18 7 0
33.880000 1.100000 1.100000 24 19 10 0
34.100000 1.100000 1.320000 24 19 10 0
34.320000 1.100000 1.100000 24 19 8 0
34.540000 1.100000 1.100000 23 18 7 0
34.760000 1.100000 1.100000 23 18 7 0
34.980000 1.100000 1.320000 23 18 7 0
0.000000 1.320000 0.880000 6 8 0 0
0.220000 1.320000 0.880000 7 9 0 0
0.440000 1.320000 0.660000 6 8 0 0
0.660000 1.320000 0.660000 7 9 0 0
0.880000 1.320000 0.880000 7 9 0 0
1.100000 1.320000 0.880000 7 9 0 0
1.320000 1.320000 0.880000 8 10 0 0
1.540000 1.320000 0.660000 7 9 0 0
1.760000 1.320000 0.880000 8 10 0 0
1.980000 1.320000 0.660000 8 10 0 0
2.200000 1.320000 0.660000 9 11 1 0
2.420000 1.320000 0.440000 9 11 1 0
2.640000 1.320000 0.660000 9 11 1 0
2.860000 1.320000 0.660000 9 11 1 0
3.080000 1.320000 0.880000 10 11 1 0
3.300000 1.320000 0.440000 10 11 1 0
3.520000 1.320000 1.100000 11 12 1 0
3.740000 1.320000 0.880000 10 11 0 0
3.960000 1.320000 0.660000 10 13 1 0
4.180000 1.320000 0.440000 10 13 1 0
4.400000 1.320000 0.660000 11 12 1 0
4.620000 1.320000 0.880000 12 13 2 0
4.840000 1.320000 0.880000 14 13 3 0
5.060000 1.320000 0.880000 14 13 3 0
5.280000 1.320000 0.880000 13 12 2 0
5.500000 1.320000 0.660000 14 13 3 0
5.720000 1.320000 0.660000 14 13 3 0
5.940000 1.320000 0.660000 15 14 4 0
6.160000 1.320000 0.660000 15 14 4 0
6.380000 1.320000 0.660000 16 15 5 0
6.600000 1.320000 1.100000 18 15 5 0
6.820000 1.320000 0.440000 18 15 5 0
7.040000 1.320000 0.880000 18 15 5 0
7.260000 1.320000 0.880000 19 16 6 0
7.480000 1.320000 0.660000 17 16 6 0
7.700000 1.320000 0.660000 17 16 6 0
7.920000 1.320000 0.880000 20 17 7 0
8.140000 1.320000 0.880000 19 16 6 0
8.360000 1.320000 0.880000 20 17 7 0
8.580000 1.320000 0.440000 19 16 6 0
8.800000 1.320000 0.440000 21 16 7 0
9.020000 1.320000 0.660000 22 17 8 0
9.240000 1.320000 0.440000 21 18 8 0
9.460000 1.320000 0.660000 20 17 7 0
9.680000 1.320000 0.660000 22 17 8 0
9.900000 1.320000 0.880000 23 18 9 0
10.120000 1.320000 0.660000 23 18 7 0
10.340000 1.320000 0.660000 23 18 7 0
10.560000 1.320000 0.660000 23 18 9 0
10.780000 1.320000 0.880000 24 19 10 0
11.000000 1.320000 0.880000 28 19 7 0
11.220000 1.320000 1.100000 30 21 9 0
11.440000 1.320000 1.980000 75 21 0 0
11.660000 1.320000 43.560000 131 77 48 0
11.880000 1.320000 43.560000 162 97 62 0
12.100000 1.320000 43.560000 170 105 70 0
12.320000 1.320000 43.560000 175 106 72 0
12.540000 1.320000 43.560000 174 105 71 0
12.760000 1.320000 43.560000 177 108 72 0
12.980000 1.320000 43.560000 179 110 74 0
13.200000 1.320000 43.560000 180 113 79 0
13.420000 1.320000 43.560000 179 112 78 0
13.640000 1.320000 43.560000 176 111 76 0
13.860000 1.320000 43.560000 180 115 80 0
14.080000 1.320000 43.560000 179 112 78 0
14.300000 1.320000 43.560000 177 110 76 0
14.520000 1.320000 43.560000 181 112 76 0
14.740000 1.320000 43.560000 180 111 75 0
14.960000 1.320000 43.560000 178 113 78 0
15.180000 1.320000 43.560000 179 114 79 0
15.400000 1.320000 43.560000 181 115 78 0
15.620000 1.320000 43.560000 182 116 79 0
15.840000 1.320000 43.560000 181 114 80 0
16.060000 1.320000 43.560000 182 115 81 0
16.280000 1.320000 43.560000 183 114 78 0
16.500000 1.320000 43.560000 182 113 77 0
16.720000 1.320000 43.560000 180 113 79 0
16.940000 1.320000 43.560000 180 113 79 0
17.160000 1.320000 43.560000 181 116 81 0
17.380000 1.320000 43.560000 180 115 80 0
17.600000 1.320000 43.560000 182 115 81 0
17.820000 1.320000 43.560000 180 113 79 0
18.040000 1.320000 43.560000 181 112 76 0
18.260000 1.320000 43.560000 182 113 77 0
18.480000 1.320000 43.560000 178 113 80 0
18.700000 1.320000 43.560000 179 114 81 0
18.920000 1.320000 43.560000 180 115 80 0
19.140000 1.320000 43.560000 180 115 80 0
19.360000 1.320000 43.560000 182 117 82 0
19.580000 1.320000 43.560000 179 114 79 0
19.800000 1.320000 43.560000 183 114 76 0
20.020000 1.320000 43.560000 184 115 77 0
20.240000 1.320000 43.560000 183 118 83 0
20.460000 1.320000 43.560000 184 119 84 0
20.680000 1.320000 43.560000 185 119 82 0
20.900000 1.320000 43.560000 186 120 83 0
21.120000 1.320000 43.560000 186 120 83 0
21.340000 1.320000 43.560000 185 119 82 0
21.560000 1.320000 43.560000 187 118 80 0
21.780000 1.320000 43.560000 187 118 80 0
22.000000 1.320000 43.560000 184 119 84 0
22.220000 1.320000 43.560000 185 120 85 0
22.440000 1.320000 43.560000 182 115 81 0
22.660000 1.320000 43.560000 180 113 79 0
22.880000 1.320000 43.560000 176 112 79 0
23.100000 1.320000 43.560000 173 109 76 0
23.320000 1.320000 43.560000 143 105 77 0
23.540000 1.320000 3.300000 118 80 52 0
23.760000 1.320000 3.080000 84 64 48 0
23.980000 1.320000 2.640000 57 37 21 0
24.200000 1.320000 1.760000 38 27 20 0
24.420000 1.320000 1.320000 34 23 16 0
24.640000 1.320000 1.100000 31 21 15 0
24.860000 1.320000 0.880000 30 20 14 0
25.080000 1.320000 0.660000 30 21 13 0
25.300000 1.320000 0.880000 30 21 13 0
25.520000 1.320000 0.660000 31 20 11 0
25.740000 1.320000 0.660000 30 19 10 0
25.960000 1.320000 0.880000 31 20 13 0
26.180000 1.320000 0.660000 31 20 13 0
26.400000 1.320000 0.660000 29 19 13 0
26.620000 1.320000 0.660000 29 19 13 0
26.840000 1.320000 0.660000 29 20 12 0
27.060000 1.320000 0.660000 29 20 12 0
27.280000 1.320000 0.660000 29 20 12 0
27.500000 1.320000 0.660000 28 19 11 0
27.720000 1.320000 0.660000 28 19 11 0
27.940000 1.320000 0.660000 28 19 11 0
28.160000 1.320000 0.660000 28 18 12 0
28.380000 1.320000 0.660000 28 18 12 0
28.600000 1.320000 0.660000 28 19 11 0
28.820000 1.320000 0.660000 28 19 11 0
29.040000 1.320000 0.880000 28 19 11 0
29.260000 1.320000 0.660000 29 20 12 0
29.480000 1.320000 0.660000 28 19 11 0
29.700000 1.320000 0.660000 28 19 11 0
29.920000 1.320000 0.440000 27 19 12 0
30.140000 1.320000 0.660000 26 18 11 0
30.360000 1.320000 0.440000 27 19 11 0
30.580000 1.320000 0.440000 27 19 11 0
30.800000 1.320000 0.440000 26 18 10 0
31.020000 1.320000 0.660000 27 19 11 0
31.240000 1.320000 0.440000 26 18 10 0
31.460000 1.320000 0.440000 27 19 11 0
31.680000 1.320000 0.440000 26 18 10 0
31.900000 1.320000 0.440000 27 19 11 0
32.120000 1.320000 0.660000 27 19 11 0
32.340000 1.320000 0.660000 27 19 11 0
32.560000 1.320000 0.440000 27 19 11 0
32.780000 1.320000 0.440000 26 18 10 0
33.000000 1.320000 0.660000 25 20 11 0
33.220000 1.320000 0.440000 24 19 10 0
33.440000 1.320000 0.660000 24 19 10 0
33.660000 1.320000 0.220000 23 18 9 0
33.880000 1.320000 0.440000 24 19 10 0
34.100000 1.320000 0.660000 24 19 10 0
34.320000 1.320000 0.660000 26 18 10 0
34.540000 1.320000 0.440000 26 18 10 0
34.760000 1.320000 0.660000 24 19 10 0
34.980000 1.320000 0.440000 23 18 9 0
0.000000 1.540000 0.220000 6 8 0 0
0.220000 1.540000 0.220000 7 9 0 0
0.440000 1.540000 0.220000 7 9 0 0
0.660000 1.540000 0.440000 7 9 0 0
0.880000 1.540000 0.220000 8 10 0 0
1.100000 1.540000 0.440000 7 9 0 0
1.320000 1.540000 0.220000 8 10 0 0
1.540000 1.540000 0.220000 7 9 0 0
1.760000 1.540000 0.220000 8 10 0 0
1.980000 1.540000 0.220000 8 10 0 0
2.200000 1.540000 0.220000 8 10 0 0
2.640000 1.540000 0.220000 9 11 1 0
3.300000 1.540000 0.440000 11 12 2 0
3.520000 1.540000 0.220000 11 12 1 0
3.740000 1.540000 0.220000 11 12 1 0
3.960000 1.540000 0.220000 11 14 2 0
4.400000 1.540000 0.220000 11 12 1 0
5.060000 1.540000 0.440000 14 13 3 0
5.280000 1.540000 0.220000 14 13 3 0
5.500000 1.540000 0.440000 15 14 4 0
5.720000 1.540000 0.440000 15 14 4 0
5.940000 1.540000 0.220000 15 14 4 0
6.160000 1.540000 0.220000 15 14 4 0
6.380000 1.540000 0.220000 15 14 4 0
6.820000 1.540000 0.220000 18 15 5 0
7.040000 1.540000 0.220000 19 16 6 0
7.260000 1.540000 0.220000 18 15 5 0
7.700000 1.540000 0.440000 17 16 6 0
8.580000 1.540000 0.440000 19 16 6 0
8.800000 1.540000 0.220000 22 17 8 0
9.680000 1.540000 0.220000 23 18 9 0
9.900000 1.540000 0.220000 22 17 8 0
10.120000 1.540000 0.220000 23 18 7 0
10.780000 1.540000 0.440000 25 20 11 0
11.000000 1.540000 0.660000 31 22 10 0
11.220000 1.540000 1.320000 51 42 30 0
11.440000 1.540000 1.760000 126 72 43 0
11.660000 1.540000 43.560000 147 93 64 0
11.880000 1.540000 43.560000 168 103 68 0
12.100000 1.540000 43.560000 174 109 74 0
12.320000 1.540000 43.560000 175 106 72 0
12.540000 1.540000 43.560000 176 107 73 0
12.760000 1.540000 43.560000 177 108 72 0
12.980000 1.540000 43.560000 180 111 75 0
13.200000 1.540000 43.560000 183 116 82 0
13.420000 1.540000 43.560000 181 114 80 0
13.640000 1.540000 43.560000 177 112 77 0
13.860000 1.540000 43.560000 177 112 77 0
14.080000 1.540000 43.560000 180 113 79 0
14.300000 1.540000 43.560000 181 114 80 0
14.520000 1.540000 43.560000 183 114 78 0
14.740000 1.540000 43.560000 182 113 77 0
14.960000 1.540000 43.560000 180 115 80 0
15.180000 1.540000 43.560000 182 117 82 0
15.400000 1.540000 43.560000 182 116 79 0
15.620000 1.540000 43.560000 182 116 79 0
15.840000 1.540000 43.560000 182 115 81 0
16.060000 1.540000 43.560000 181 114 80 0
16.280000 1.540000 43.560000 184 115 79 0
16.500000 1.540000 43.560000 184 115 79 0
16.720000 1.540000 43.560000 181 114 80 0
16.940000 1.540000 43.560000 180 113 79 0
17.160000 1.540000 43.560000 182 117 82 0
17.380000 1.540000 43.560000 182 117 82 0
17.600000 1.540000 43.560000 182 115 81 0
17.820000 1.540000 43.560000 182 115 81 0
18.040000 1.540000 43.560000 182 113 77 0
18.260000 1.540000 43.560000 182 113 77 0
18.480000 1.540000 43.560000 179 114 81 0
18.700000 1.540000 43.560000 180 115 82 0
18.920000 1.540000 43.560000 182 117 82 0
19.140000 1.540000 43.560000 181 116 81 0
19.360000 1.540000 43.560000 186 121 86 0
19.580000 1.540000 43.560000 181 116 81 0
19.800000 1.540000 43.560000 184 115 77 0
20.020000 1.540000 43.560000 186 117 79 0
20.240000 1.540000 43.560000 185 120 85 0
20.460000 1.540000 43.560000 185 120 85 0
20.680000 1.540000 43.560000 186 120 83 0
20.900000 1.540000 43.560000 187 121 84 0
21.120000 1.540000 43.560000 187 121 84 0
21.340000 1.540000 43.560000 187 121 84 0
21.560000 1.540000 43.560000 189 120 82 0
21.780000 1.540000 43.560000 189 120 82 0
22.000000 1.540000 43.560000 185 120 85 0
22.220000 1.540000 43.560000 185 120 85 0
22.440000 1.540000 43.560000 184 117 83 0
22.660000 1.540000 43.560000 181 114 80 0
22.880000 1.540000 43.560000 179 115 82 0
23.100000 1.540000 43.560000 180 116 83 0
23.320000 1.540000 43.560000 160 122 94 0
23.540000 1.540000 43.560000 158 120 92 0
23.760000 1.540000 43.560000 138 118 102 0
23.980000 1.540000 43.560000 122 102 86 0
24.200000 1.540000 2.420000 91 80 73 0
24.420000 1.540000 2.200000 62 51 44 0
24.640000 1.540000 1.760000 45 35 29 0
24.860000 1.540000 1.100000 38 28 22 0
25.080000 1.540000 0.660000 34 25 17 0
25.300000 1.540000 0.660000 32 23 15 0
25.520000 1.540000 0.440000 32 21 12 0
25.740000 1.540000 0.440000 32 21 12 0
25.960000 1.540000 0.440000 31 20 13 0
26.180000 1.540000 0.220000 32 21 14 0
26.400000 1.540000 0.220000 31 21 15 0
26.620000 1.540000 0.220000 30 20 14 0
26.840000 1.540000 0.220000 30 21 13 0
27.060000 1.540000 0.220000 29 20 12 0
27.720000 1.540000 0.220000 29 20 12 0
28.160000 1.540000 0.220000 29 19 13 0
28.380000 1.540000 0.220000 29 19 13 0
29.260000 1.540000 0.220000 29 20 12 0
30.360000 1.540000 0.220000 27 19 11 0
31.020000 1.540000 0.220000 27 19 11 0
33.000000 1.540000 0.220000 24 19 10 0
33.440000 1.540000 0.220000 25 20 11 0
34.760000 1.540000 0.220000 24 19 10 0
34.980000 1.540000 0.220000 24 19 10 0
0.000000 1.760000 43.560000 7 9 0 0
0.440000 1.760000 43.560000 6 8 0 0
0.880000 1.760000 43.560000 8 10 0 0
1.100000 1.760000 43.560000 8 10 0 0
1.320000 1.760000 43.560000 8 10 0 0
2.420000 1.760000 43.560000 9 11 1 0
2.640000 1.760000 43.560000 9 11 1 0
3.080000 1.760000 43.560000 9 11 1 0
3.300000 1.760000 43.560000 9 11 1 0
4.180000 1.760000 43.560000 12 13 3 0
4.400000 1.760000 43.560000 11 12 1 0
4.620000 1.760000 43.560000 12 13 2 0
5.280000 1.760000 43.560000 14 13 3 0
6.600000 1.760000 43.560000 17 14 4 0
6.820000 1.760000 43.560000 19 16 6 0
7.260000 1.760000 43.560000 18 15 5 0
7.480000 1.760000 43.560000 18 15 5 0
7.920000 1.760000 43.560000 19 16 6 0
8.140000 1.760000 43.560000 19 16 6 0
8.360000 1.760000 43.560000 19 16 6 0
9.020000 1.760000 43.560000 20 17 7 0
9.240000 1.760000 43.560000 22 17 8 0
9.680000 1.760000 43.560000 22 19 9 0
9.900000 1.760000 43.560000 21 18 8 0
10.120000 1.760000 43.560000 23 18 9 0
10.340000 1.760000 43.560000 24 19 10 0
10.560000 1.760000 43.560000 30 16 8 0
11.000000 1.760000 0.660000 101 50 16 0
11.220000 1.760000 0.880000 147 96 62 0
11.440000 1.760000 43.560000 164 104 65 0
11.660000 1.760000 43.560000 167 107 68 0
11.880000 1.760000 43.560000 175 110 73 0
12.100000 1.760000 43.560000 176 111 74 0
12.320000 1.760000 43.560000 177 111 72 0
12.540000 1.760000 43.560000 176 110 71 0
12.760000 1.760000 43.560000 177 108 70 0
12.980000 1.760000 43.560000 181 112 74 0
13.200000 1.760000 43.560000 181 115 76 0
13.420000 1.760000 43.560000 183 117 78 0
13.640000 1.760000 43.560000 183 117 80 0
13.860000 1.760000 43.560000 181 115 78 0
14.080000 1.760000 43.560000 183 118 81 0
14.300000 1.760000 43.560000 179 114 77 0
14.520000 1.760000 43.560000 183 114 76 0
14.740000 1.760000 43.560000 185 116 78 0
14.960000 1.760000 43.560000 182 116 77 0
15.180000 1.760000 43.560000 183 117 78 0
15.400000 1.760000 43.560000 183 117 78 0
15.620000 1.760000 43.560000 184 118 79 0
15.840000 1.760000 43.560000 185 116 78 0
16.060000 1.760000 43.560000 184 115 77 0
16.280000 1.760000 43.560000 184 115 77 0
16.500000 1.760000 43.560000 185 116 78 0
16.720000 1.760000 43.560000 183 114 76 0
16.940000 1.760000 43.560000 183 114 76 0
17.160000 1.760000 43.560000 186 117 79 0
17.380000 1.760000 43.560000 186 117 79 0
17.600000 1.760000 43.560000 182 117 80 0
17.820000 1.760000 43.560000 180 115 78 0
18.040000 1.760000 43.560000 180 115 78 0
18.260000 1.760000 43.560000 179 114 77 0
18.480000 1.760000 43.560000 181 115 76 0
18.700000 1.760000 43.560000 182 116 77 0
18.920000 1.760000 43.560000 183 117 78 0
19.140000 1.760000 43.560000 181 115 76 0
19.360000 1.760000 43.560000 185 119 82 0
19.580000 1.760000 43.560000 186 120 83 0
19.800000 1.760000 43.560000 186 117 79 0
20.020000 1.760000 43.560000 186 117 79 0
20.240000 1.760000 43.560000 187 119 79 0
20.460000 1.760000 43.560000 188 120 80 0
20.680000 1.760000 43.560000 190 120 81 0
20.900000 1.760000 43.560000 192 122 83 0
21.120000 1.760000 43.560000 190 122 82 0
21.340000 1.760000 43.560000 190 122 82 0
21.560000 1.760000 43.560000 191 123 81 0
21.780000 1.760000 43.560000 190 122 80 0
22.000000 1.760000 43.560000 189 121 81 0
22.220000 1.760000 43.560000 189 121 81 0
22.440000 1.760000 43.560000 190 122 82 0
22.660000 1.760000 43.560000 188 120 80 0
22.880000 1.760000 43.560000 186 120 81 0
23.100000 1.760000 43.560000 184 118 79 0
23.320000 1.760000 43.560000 184 118 79 0
23.540000 1.760000 43.560000 183 117 78 0
23.760000 1.760000 43.560000 177 114 76 0
23.980000 1.760000 43.560000 176 113 75 0
24.200000 1.760000 43.560000 167 112 76 0
24.420000 1.760000 43.560000 159 104 68 0
24.640000 1.760000 43.560000 134 102 74 0
24.860000 1.760000 43.560000 118 86 58 0
25.080000 1.760000 1.540000 84 62 44 0
25.300000 1.760000 1.320000 68 46 28 0
25.520000 1.760000 1.100000 59 43 25 0
25.740000 1.760000 0.880000 55 39 21 0
25.960000 1.760000 0.440000 41 32 24 0
27.060000 1.760000 43.560000 29 21 14 0
27.280000 1.760000 43.560000 29 21 13 0
27.500000 1.760000 43.560000 29 21 13 0
27.720000 1.760000 43.560000 29 21 14 0
27.940000 1.760000 43.560000 28 20 13 0
28.160000 1.760000 43.560000 28 20 12 0
28.380000 1.760000 43.560000 27 19 11 0
28.600000 1.760000 43.560000 28 20 12 0
28.820000 1.760000 43.560000 28 20 12 0
29.040000 1.760000 43.560000 28 20 12 0
29.260000 1.760000 43.560000 27 19 11 0
29.480000 1.760000 43.560000 28 20 13 0
29.700000 1.760000 43.560000 28 20 13 0
29.920000 1.760000 43.560000 27 19 11 0
30.140000 1.760000 43.560000 27 19 11 0
30.360000 1.760000 43.560000 25 20 11 0
30.580000 1.760000 43.560000 25 20 11 0
30.800000 1.760000 43.560000 27 19 11 0
31.020000 1.760000 43.560000 27 19 11 0
31.240000 1.760000 43.560000 27 19 11 0
31.460000 1.760000 43.560000 27 19 11 0
31.680000 1.760000 43.560000 28 20 12 0
31.900000 1.760000 43.560000 27 19 11 0
32.120000 1.760000 43.560000 27 19 11 0
32.340000 1.760000 43.560000 27 19 11 0
32.560000 1.760000 43.560000 27 19 11 0
32.780000 1.760000 43.560000 26 18 10 0
33.000000 1.760000 43.560000 26 18 10 0
33.220000 1.760000 43.560000 26 18 10 0
33.440000 1.760000 43.560000 25 20 11 0
33.660000 1.760000 43.560000 23 18 9 0
33.880000 1.760000 43.560000 24 19 8 0
34.100000 1.760000 43.560000 24 19 8 0
34.320000 1.760000 43.560000 24 19 10 0
34.540000 1.760000 43.560000 24 19 10 0
34.760000 1.760000 43.560000 26 18 10 0
34.980000 1.760000 43.560000 25 17 9 0
0.000000 1.980000 43.560000 6 8 0 0
0.220000 1.980000 43.560000 7 9 0 0
0.440000 1.980000 43.560000 6 8 0 0
0.660000 1.980000 43.560000 7 9 0 0
0.880000 1.980000 43.560000 8 10 0 0
1.100000 1.980000 43.560000 7 9 0 0
1.320000 1.980000 43.560000 7 9 0 0
1.540000 1.980000 43.560000 7 9 0 0
1.760000 1.980000 43.560000 8 10 0 0
1.980000 1.980000 43.560000 8 10 0 0
2.200000 1.980000 43.560000 9 11 1 0
2.420000 1.980000 43.560000 9 11 1 0
2.640000 1.980000 43.560000 9 11 1 0
2.860000 1.980000 43.560000 9 11 1 0
3.080000 1.980000 43.560000 9 11 1 0
3.300000 1.980000 43.560000 9 11 1 0
3.520000 1.980000 43.560000 11 12 2 0
3.740000 1.980000 43.560000 11 12 2 0
3.960000 1.980000 43.560000 12 13 3 0
4.180000 1.980000 43.560000 12 13 3 0
4.400000 1.980000 43.560000 12 13 2 0
4.620000 1.980000 43.560000 12 13 2 0
4.840000 1.980000 43.560000 13 14 3 0
5.060000 1.980000 43.560000 13 14 3 0
5.280000 1.980000 43.560000 14 13 3 0
5.500000 1.980000 43.560000 15 14 4 0
5.720000 1.980000 43.560000 15 14 4 0
5.940000 1.980000 43.560000 15 14 4 0
6.160000 1.980000 43.560000 15 14 4 0
6.380000 1.980000 43.560000 15 14 4 0
6.600000 1.980000 43.560000 18 15 5 0
6.820000 1.980000 43.560000 18 15 5 0
7.040000 1.980000 43.560000 18 15 5 0
7.260000 1.980000 43.560000 18 15 5 0
7.480000 1.980000 43.560000 19 16 6 0
7.700000 1.980000 43.560000 19 16 6 0
7.920000 1.980000 43.560000 19 16 6 0
8.140000 1.980000 43.560000 19 16 6 0
8.360000 1.980000 43.560000 20 17 7 0
8.580000 1.980000 43.560000 20 17 7 0
8.800000 1.980000 43.560000 20 17 7 0
9.020000 1.980000 43.560000 20 17 7 0
9.240000 1.980000 43.560000 22 17 8 0
9.460000 1.980000 43.560000 22 17 8 0
9.680000 1.980000 43.560000 21 18 8 0
9.900000 1.980000 43.560000 22 19 9 0
10.120000 1.980000 43.560000 23 18 9 0
10.340000 1.980000 43.560000 24 19 10 0
10.560000 1.980000 43.560000 32 18 10 0
11.000000 1.980000 43.560000 141 90 56 0
11.220000 1.980000 43.560000 151 100 66 0
11.440000 1.980000 43.560000 166 106 67 0
11.660000 1.980000 43.560000 175 115 76 0
11.880000 1.980000 43.560000 180 115 78 0
12.100000 1.980000 43.560000 179 114 77 0
12.320000 1.980000 43.560000 180 114 75 0
