ply
format ascii 1.0
element vertex 1116
property float x
property float y
property float z
property uchar red
property uchar green
property uchar blue
property uchar alpha
end_header
32.120000 12.100000 56.100000 128 132 113 0
32.340000 12.100000 56.100000 127 131 112 0
32.560000 12.100000 56.100000 122 130 114 0
32.780000 12.100000 56.100000 112 120 104 0
33.000000 12.100000 56.100000 86 94 91 0
33.220000 12.100000 56.100000 56 64 61 0
2.640000 12.320000 56.100000 81 49 23 0
2.860000 12.320000 56.100000 122 90 64 0
3.080000 12.320000 56.100000 160 108 81 0
3.300000 12.320000 56.100000 165 113 86 0
3.520000 12.320000 56.100000 166 114 87 0
3.740000 12.320000 56.100000 168 116 89 0
3.960000 12.320000 56.100000 166 114 87 0
4.180000 12.320000 56.100000 164 112 85 0
4.400000 12.320000 56.100000 164 114 84 0
4.620000 12.320000 56.100000 166 116 86 0
4.840000 12.320000 56.100000 169 113 83 0
5.060000 12.320000 56.100000 173 117 87 0
5.280000 12.320000 38.280000 175 115 86 0
5.500000 12.320000 38.720000 176 116 87 0
5.720000 12.320000 39.380000 177 115 85 0
5.940000 12.320000 39.820000 178 116 86 0
6.160000 12.320000 40.260000 174 117 85 0
6.380000 12.320000 40.700000 176 119 87 0
6.600000 12.320000 48.400000 179 121 92 0
6.820000 12.320000 41.580000 177 119 90 0
7.040000 12.320000 41.800000 183 117 86 0
7.260000 12.320000 42.240000 185 119 88 0
7.480000 12.320000 49.720000 186 120 89 0
7.700000 12.320000 49.940000 187 121 90 0
7.920000 12.320000 43.340000 189 122 91 0
8.140000 12.320000 43.560000 189 122 91 0
8.360000 12.320000 43.780000 190 120 89 0
8.580000 12.320000 44.440000 188 118 87 0
8.800000 12.320000 44.660000 188 118 88 0
9.020000 12.320000 44.880000 189 119 89 0
9.240000 12.320000 45.100000 191 121 90 0
9.460000 12.320000 45.320000 192 122 91 0
9.680000 12.320000 45.540000 193 123 92 0
9.900000 12.320000 45.760000 193 123 92 0
10.120000 12.320000 45.980000 198 127 94 0
10.340000 12.320000 45.980000 198 127 94 0
10.560000 12.320000 46.420000 197 126 93 0
10.780000 12.320000 46.420000 197 126 93 0
11.000000 12.320000 46.640000 196 125 92 0
11.220000 12.320000 46.860000 197 126 93 0
11.440000 12.320000 47.080000 200 126 92 0
11.660000 12.320000 47.080000 200 126 92 0
11.880000 12.320000 47.300000 199 125 91 0
12.100000 12.320000 47.300000 200 126 92 0
12.320000 12.320000 47.520000 199 125 91 0
12.540000 12.320000 47.740000 201 127 93 0
12.760000 12.320000 47.960000 201 130 95 0
12.980000 12.320000 48.180000 201 130 95 0
13.200000 12.320000 48.400000 201 132 96 0
13.420000 12.320000 48.400000 202 133 97 0
13.640000 12.320000 48.620000 205 134 101 0
13.860000 12.320000 48.840000 205 134 101 0
14.080000 12.320000 48.840000 204 133 98 0
14.300000 12.320000 49.060000 203 132 97 0
14.520000 12.320000 49.280000 203 132 97 0
14.740000 12.320000 49.500000 202 131 96 0
14.960000 12.320000 49.500000 203 132 97 0
15.180000 12.320000 49.720000 204 133 98 0
15.400000 12.320000 49.940000 204 133 98 0
15.620000 12.320000 50.160000 205 134 99 0
15.840000 12.320000 50.380000 203 143 110 0
16.060000 12.320000 50.600000 210 150 117 0
16.280000 12.320000 51.040000 207 146 112 0
16.500000 12.320000 51.260000 207 146 112 0
16.720000 12.320000 51.700000 206 136 98 0
16.940000 12.320000 52.140000 204 134 96 0
17.160000 12.320000 52.580000 207 138 104 0
17.380000 12.320000 52.800000 208 139 105 0
17.600000 12.320000 53.240000 206 135 100 0
17.820000 12.320000 53.680000 202 131 96 0
18.040000 12.320000 54.120000 201 140 106 0
18.260000 12.320000 54.340000 202 141 107 0
18.480000 12.320000 54.780000 204 139 104 0
18.700000 12.320000 55.000000 206 141 106 0
18.920000 12.320000 55.440000 206 133 96 0
19.140000 12.320000 55.880000 203 130 93 0
19.360000 12.320000 56.100000 202 132 94 0
19.580000 12.320000 56.100000 202 132 94 0
19.800000 12.320000 56.100000 201 131 93 0
20.020000 12.320000 56.100000 201 131 93 0
20.240000 12.320000 56.100000 199 128 93 0
20.460000 12.320000 56.100000 195 124 89 0
20.680000 12.320000 56.100000 189 120 84 0
20.900000 12.320000 56.100000 185 116 80 0
21.120000 12.320000 56.100000 178 112 83 0
21.340000 12.320000 56.100000 176 110 81 0
21.560000 12.320000 56.100000 168 110 81 0
21.780000 12.320000 56.100000 164 106 77 0
22.000000 12.320000 56.100000 165 104 78 0
22.220000 12.320000 56.100000 168 107 81 0
22.440000 12.320000 56.100000 165 107 80 0
22.660000 12.320000 56.100000 162 104 77 0
22.880000 12.320000 56.100000 160 102 75 0
23.100000 12.320000 56.100000 160 102 75 0
23.320000 12.320000 56.100000 165 107 78 0
23.540000 12.320000 56.100000 166 108 79 0
23.760000 12.320000 56.100000 170 109 83 0
23.980000 12.320000 56.100000 170 109 83 0
24.200000 12.320000 56.100000 173 113 84 0
24.420000 12.320000 56.100000 173 113 84 0
24.640000 12.320000 56.100000 175 111 81 0
24.860000 12.320000 38.280000 174 110 80 0
25.080000 12.320000 40.480000 169 111 82 0
25.300000 12.320000 42.020000 168 110 81 0
25.520000 12.320000 50.380000 169 111 84 0
25.740000 12.320000 51.920000 169 111 84 0
25.960000 12.320000 46.200000 170 112 83 0
26.180000 12.320000 47.300000 171 113 84 0
26.400000 12.320000 48.620000 173 115 86 0
26.620000 12.320000 49.940000 174 116 87 0
26.840000 12.320000 51.040000 175 117 88 0
27.060000 12.320000 51.920000 177 119 90 0
27.280000 12.320000 52.580000 172 111 85 0
27.500000 12.320000 53.460000 169 108 82 0
27.720000 12.320000 53.900000 172 114 85 0
27.940000 12.320000 54.340000 175 117 88 0
28.160000 12.320000 54.780000 175 119 89 0
28.380000 12.320000 55.220000 177 121 91 0
28.600000 12.320000 55.660000 181 125 95 0
28.820000 12.320000 56.100000 176 120 90 0
29.040000 12.320000 56.100000 175 124 92 0
29.260000 12.320000 56.100000 173 122 90 0
29.480000 12.320000 56.100000 170 116 85 0
29.700000 12.320000 56.100000 163 109 78 0
29.920000 12.320000 56.100000 146 104 77 0
30.140000 12.320000 56.100000 138 96 69 0
30.360000 12.320000 56.100000 118 116 98 0
30.580000 12.320000 56.100000 131 129 111 0
30.800000 12.320000 56.100000 131 131 114 0
31.020000 12.320000 56.100000 130 130 113 0
31.240000 12.320000 56.100000 132 130 113 0
31.460000 12.320000 56.100000 132 130 113 0
31.680000 12.320000 56.100000 129 131 115 0
31.900000 12.320000 56.100000 128 130 114 0
32.120000 12.320000 56.100000 130 130 113 0
32.340000 12.320000 56.100000 129 129 112 0
32.560000 12.320000 56.100000 126 129 115 0
32.780000 12.320000 56.100000 117 120 106 0
33.000000 12.320000 56.100000 87 97 91 0
33.220000 12.320000 56.100000 58 68 62 0
2.640000 12.540000 56.100000 84 52 26 0
2.860000 12.540000 56.100000 127 95 69 0
3.080000 12.540000 56.100000 161 109 82 0
3.300000 12.540000 56.100000 166 114 87 0
3.520000 12.540000 56.100000 168 116 89 0
3.740000 12.540000 56.100000 168 116 89 0
3.960000 12.540000 56.100000 168 116 89 0
4.180000 12.540000 56.100000 168 116 89 0
4.400000 12.540000 56.100000 166 116 86 0
4.620000 12.540000 56.100000 163 113 83 0
4.840000 12.540000 56.100000 168 112 82 0
5.060000 12.540000 56.100000 171 115 85 0
5.280000 12.540000 56.100000 175 115 86 0
5.500000 12.540000 56.100000 176 116 87 0
5.720000 12.540000 56.100000 177 115 85 0
5.940000 12.540000 56.100000 177 115 85 0
6.160000 12.540000 56.100000 177 120 88 0
6.380000 12.540000 56.100000 178 121 89 0
6.600000 12.540000 56.100000 181 123 94 0
6.820000 12.540000 56.100000 179 121 92 0
7.040000 12.540000 56.100000 184 118 87 0
7.260000 12.540000 56.100000 185 119 88 0
7.480000 12.540000 37.840000 186 120 89 0
7.700000 12.540000 45.540000 187 121 90 0
7.920000 12.540000 46.200000 186 119 88 0
8.140000 12.540000 39.380000 188 121 90 0
8.360000 12.540000 39.600000 192 122 91 0
8.580000 12.540000 40.040000 190 120 89 0
8.800000 12.540000 40.480000 190 120 90 0
9.020000 12.540000 41.140000 189 119 89 0
9.240000 12.540000 41.360000 180 110 79 0
9.460000 12.540000 41.580000 193 123 92 0
9.680000 12.540000 41.800000 195 125 94 0
9.900000 12.540000 34.540000 195 125 94 0
10.120000 12.540000 42.240000 196 125 92 0
10.340000 12.540000 42.680000 196 125 92 0
10.560000 12.540000 42.680000 198 127 94 0
10.780000 12.540000 43.120000 195 124 91 0
11.000000 12.540000 43.120000 196 125 92 0
11.220000 12.540000 43.560000 197 126 93 0
11.440000 12.540000 43.560000 200 126 92 0
11.660000 12.540000 43.780000 199 125 91 0
11.880000 12.540000 44.000000 200 126 92 0
12.100000 12.540000 44.220000 202 128 94 0
12.320000 12.540000 44.220000 201 127 93 0
12.540000 12.540000 44.440000 202 128 94 0
12.760000 12.540000 44.660000 200 129 94 0
12.980000 12.540000 44.660000 202 131 96 0
13.200000 12.540000 44.880000 201 132 96 0
13.420000 12.540000 45.100000 202 133 97 0
13.640000 12.540000 45.100000 206 135 102 0
13.860000 12.540000 45.320000 206 135 102 0
14.080000 12.540000 45.540000 204 133 98 0
14.300000 12.540000 45.540000 204 133 98 0
14.520000 12.540000 45.760000 203 132 97 0
14.740000 12.540000 45.980000 203 132 97 0
14.960000 12.540000 45.980000 203 132 97 0
15.180000 12.540000 46.420000 202 131 96 0
15.400000 12.540000 46.420000 204 133 98 0
15.620000 12.540000 46.640000 212 141 106 0
15.840000 12.540000 46.860000 214 154 121 0
16.060000 12.540000 46.860000 245 185 152 0
16.280000 12.540000 47.740000 211 150 116 0
16.500000 12.540000 48.400000 200 139 105 0
16.720000 12.540000 48.620000 206 136 98 0
16.940000 12.540000 49.280000 207 137 99 0
17.160000 12.540000 49.940000 203 134 100 0
17.380000 12.540000 50.380000 206 137 103 0
17.600000 12.540000 50.820000 203 132 97 0
17.820000 12.540000 51.480000 204 133 98 0
18.040000 12.540000 51.700000 203 142 108 0
18.260000 12.540000 52.140000 199 138 104 0
18.480000 12.540000 52.580000 198 133 98 0
18.700000 12.540000 53.240000 190 125 90 0
18.920000 12.540000 53.460000 204 131 94 0
19.140000 12.540000 53.680000 202 129 92 0
19.360000 12.540000 54.340000 198 128 90 0
19.580000 12.540000 54.780000 199 129 91 0
19.800000 12.540000 55.000000 196 126 88 0
20.020000 12.540000 55.440000 195 125 87 0
20.240000 12.540000 56.100000 195 124 89 0
20.460000 12.540000 56.100000 190 119 84 0
20.680000 12.540000 56.100000 188 119 83 0
20.900000 12.540000 56.100000 185 116 80 0
21.120000 12.540000 56.100000 181 115 86 0
21.340000 12.540000 56.100000 179 113 84 0
21.560000 12.540000 56.100000 169 111 82 0
21.780000 12.540000 56.100000 164 106 77 0
22.000000 12.540000 56.100000 166 105 79 0
22.220000 12.540000 56.100000 168 107 81 0
22.440000 12.540000 56.100000 167 109 82 0
22.660000 12.540000 56.100000 166 108 81 0
22.880000 12.540000 56.100000 164 106 79 0
23.100000 12.540000 56.100000 162 104 77 0
23.320000 12.540000 56.100000 164 106 77 0
23.540000 12.540000 56.100000 168 110 81 0
23.760000 12.540000 56.100000 172 111 85 0
23.980000 12.540000 56.100000 175 114 88 0
24.200000 12.540000 56.100000 177 117 88 0
24.420000 12.540000 56.100000 177 117 88 0
24.640000 12.540000 56.100000 180 116 86 0
24.860000 12.540000 56.100000 179 115 85 0
25.080000 12.540000 56.100000 173 115 86 0
25.300000 12.540000 56.100000 173 115 86 0
25.520000 12.540000 46.200000 174 116 89 0
25.740000 12.540000 40.700000 174 116 89 0
25.960000 12.540000 42.240000 178 120 91 0
26.180000 12.540000 50.380000 172 114 85 0
26.400000 12.540000 51.480000 173 115 86 0
26.620000 12.540000 52.360000 180 122 93 0
26.840000 12.540000 46.860000 172 114 85 0
27.060000 12.540000 47.960000 173 115 86 0
27.280000 12.540000 48.840000 176 115 89 0
27.500000 12.540000 49.720000 171 110 84 0
27.720000 12.540000 50.600000 173 115 86 0
27.940000 12.540000 51.480000 178 120 91 0
28.160000 12.540000 52.140000 179 123 93 0
28.380000 12.540000 52.800000 180 124 94 0
28.600000 12.540000 53.240000 178 122 92 0
28.820000 12.540000 53.680000 172 116 86 0
29.040000 12.540000 54.340000 169 118 86 0
29.260000 12.540000 54.780000 165 114 82 0
29.480000 12.540000 55.440000 158 104 73 0
29.700000 12.540000 56.100000 152 98 67 0
29.920000 12.540000 56.100000 142 100 73 0
30.140000 12.540000 56.100000 141 99 72 0
30.360000 12.540000 56.100000 111 109 91 0
30.580000 12.540000 56.100000 126 124 106 0
30.800000 12.540000 56.100000 132 132 115 0
31.020000 12.540000 56.100000 132 132 115 0
31.240000 12.540000 56.100000 133 131 114 0
31.460000 12.540000 56.100000 133 131 114 0
31.680000 12.540000 56.100000 130 132 116 0
31.900000 12.540000 56.100000 129 131 115 0
32.120000 12.540000 56.100000 130 130 113 0
32.340000 12.540000 56.100000 130 130 113 0
32.560000 12.540000 56.100000 126 129 115 0
32.780000 12.540000 56.100000 117 120 106 0
33.000000 12.540000 56.100000 90 100 94 0
33.220000 12.540000 56.100000 60 70 64 0
2.640000 12.760000 56.100000 86 53 29 0
2.860000 12.760000 56.100000 132 99 75 0
3.080000 12.760000 56.100000 165 113 84 0
3.300000 12.760000 56.100000 166 114 85 0
3.520000 12.760000 56.100000 173 115 86 0
3.740000 12.760000 56.100000 175 117 88 0
3.960000 12.760000 56.100000 175 117 88 0
4.180000 12.760000 56.100000 173 115 86 0
4.400000 12.760000 56.100000 166 115 83 0
4.620000 12.760000 56.100000 164 113 81 0
4.840000 12.760000 56.100000 169 112 78 0
5.060000 12.760000 56.100000 171 114 80 0
5.280000 12.760000 56.100000 176 116 85 0
5.500000 12.760000 56.100000 176 116 85 0
5.720000 12.760000 56.100000 178 118 87 0
5.940000 12.760000 56.100000 177 117 86 0
6.160000 12.760000 56.100000 182 118 86 0
6.380000 12.760000 56.100000 184 120 88 0
6.600000 12.760000 56.100000 182 121 88 0
6.820000 12.760000 56.100000 182 121 88 0
7.040000 12.760000 56.100000 185 121 89 0
7.260000 12.760000 56.100000 185 121 89 0
7.480000 12.760000 56.100000 187 121 90 0
7.700000 12.760000 56.100000 187 121 90 0
7.920000 12.760000 56.100000 187 120 88 0
8.140000 12.760000 56.100000 190 123 91 0
8.360000 12.760000 56.100000 189 122 88 0
8.580000 12.760000 56.100000 188 121 87 0
8.800000 12.760000 56.100000 188 121 89 0
9.020000 12.760000 56.100000 189 122 90 0
9.240000 12.760000 56.100000 187 117 86 0
9.460000 12.760000 56.100000 194 124 93 0
9.680000 12.760000 56.100000 196 127 93 0
9.900000 12.760000 56.100000 196 127 93 0
10.120000 12.760000 37.180000 197 126 91 0
10.340000 12.760000 37.400000 197 126 91 0
10.560000 12.760000 37.840000 197 128 94 0
10.780000 12.760000 38.060000 196 127 93 0
11.000000 12.760000 38.720000 199 128 95 0
11.220000 12.760000 38.940000 199 128 95 0
11.440000 12.760000 39.160000 200 129 94 0
11.660000 12.760000 39.380000 199 128 93 0
11.880000 12.760000 39.600000 201 130 95 0
12.100000 12.760000 40.040000 203 132 97 0
12.320000 12.760000 40.260000 202 131 96 0
12.540000 12.760000 40.480000 201 130 95 0
12.760000 12.760000 40.480000 202 133 95 0
12.980000 12.760000 40.700000 208 139 101 0
13.200000 12.760000 40.920000 206 135 100 0
13.420000 12.760000 41.140000 204 133 98 0
13.640000 12.760000 33.660000 206 136 98 0
13.860000 12.760000 41.580000 205 135 97 0
14.080000 12.760000 49.280000 204 134 96 0
14.300000 12.760000 42.240000 203 133 95 0
14.520000 12.760000 42.460000 204 134 96 0
14.740000 12.760000 42.680000 205 135 97 0
14.960000 12.760000 42.680000 206 136 98 0
15.180000 12.760000 42.900000 205 135 97 0
15.400000 12.760000 42.900000 198 145 108 0
15.620000 12.760000 43.120000 215 162 125 0
15.840000 12.760000 43.120000 224 187 140 0
16.060000 12.760000 43.560000 215 178 131 0
16.280000 12.760000 44.660000 206 152 109 0
16.500000 12.760000 51.700000 216 162 119 0
16.720000 12.760000 45.540000 211 141 103 0
16.940000 12.760000 46.200000 207 137 99 0
17.160000 12.760000 46.640000 203 133 95 0
17.380000 12.760000 47.080000 203 133 95 0
17.600000 12.760000 47.740000 203 137 100 0
17.820000 12.760000 48.180000 204 138 101 0
18.040000 12.760000 48.620000 202 132 94 0
18.260000 12.760000 49.280000 202 132 94 0
18.480000 12.760000 49.720000 203 133 95 0
18.700000 12.760000 50.160000 203 133 95 0
18.920000 12.760000 51.040000 203 130 92 0
19.140000 12.760000 51.480000 202 129 91 0
19.360000 12.760000 51.920000 200 127 89 0
19.580000 12.760000 52.580000 198 125 87 0
19.800000 12.760000 53.020000 195 122 84 0
20.020000 12.760000 53.460000 196 123 85 0
20.240000 12.760000 54.120000 194 124 86 0
20.460000 12.760000 54.560000 195 125 87 0
20.680000 12.760000 55.220000 191 122 88 0
20.900000 12.760000 55.880000 189 120 86 0
21.120000 12.760000 56.100000 182 118 86 0
21.340000 12.760000 56.100000 175 111 79 0
21.560000 12.760000 56.100000 171 110 77 0
21.780000 12.760000 56.100000 170 109 76 0
22.000000 12.760000 56.100000 172 108 76 0
22.220000 12.760000 56.100000 173 109 77 0
22.440000 12.760000 56.100000 171 109 79 0
22.660000 12.760000 56.100000 170 108 78 0
22.880000 12.760000 56.100000 162 105 71 0
23.100000 12.760000 56.100000 162 105 71 0
23.320000 12.760000 56.100000 169 105 73 0
23.540000 12.760000 56.100000 175 111 79 0
23.760000 12.760000 56.100000 179 115 83 0
23.980000 12.760000 56.100000 181 117 85 0
24.200000 12.760000 56.100000 183 117 86 0
24.420000 12.760000 56.100000 183 117 86 0
24.640000 12.760000 56.100000 184 119 86 0
24.860000 12.760000 56.100000 185 120 87 0
25.080000 12.760000 56.100000 182 121 88 0
25.300000 12.760000 56.100000 180 119 86 0
25.520000 12.760000 56.100000 180 121 86 0
25.740000 12.760000 56.100000 180 121 86 0
25.960000 12.760000 56.100000 191 127 97 0
26.180000 12.760000 45.760000 182 118 88 0
26.400000 12.760000 47.520000 174 113 79 0
26.620000 12.760000 41.800000 183 122 88 0
26.840000 12.760000 42.680000 180 114 85 0
27.060000 12.760000 50.600000 174 108 79 0
27.280000 12.760000 44.660000 170 110 81 0
27.500000 12.760000 45.540000 172 112 83 0
27.720000 12.760000 53.460000 176 116 87 0
27.940000 12.760000 47.960000 175 115 86 0
28.160000 12.760000 55.000000 168 119 84 0
28.380000 12.760000 55.880000 175 126 91 0
28.600000 12.760000 50.160000 180 125 92 0
28.820000 12.760000 51.040000 172 117 84 0
29.040000 12.760000 51.920000 153 113 83 0
29.260000 12.760000 52.800000 145 105 75 0
29.480000 12.760000 53.680000 141 95 64 0
29.700000 12.760000 54.340000 143 97 66 0
29.920000 12.760000 54.780000 146 100 71 0
30.140000 12.760000 55.440000 142 96 67 0
30.360000 12.760000 56.100000 103 97 76 0
30.580000 12.760000 56.100000 123 117 96 0
30.800000 12.760000 56.100000 133 134 113 0
31.020000 12.760000 56.100000 134 135 114 0
31.240000 12.760000 56.100000 135 133 115 0
31.460000 12.760000 56.100000 134 132 114 0
31.680000 12.760000 56.100000 132 133 114 0
31.900000 12.760000 56.100000 132 133 114 0
32.120000 12.760000 56.100000 132 133 114 0
32.340000 12.760000 56.100000 130 131 112 0
32.560000 12.760000 56.100000 128 130 112 0
32.780000 12.760000 56.100000 121 123 105 0
33.000000 12.760000 56.100000 94 103 95 0
33.220000 12.760000 56.100000 64 73 65 0
2.640000 12.980000 56.100000 92 59 35 0
2.860000 12.980000 56.100000 140 107 83 0
3.080000 12.980000 56.100000 171 119 90 0
3.300000 12.980000 56.100000 169 117 88 0
3.520000 12.980000 56.100000 176 118 89 0
3.740000 12.980000 56.100000 177 119 90 0
3.960000 12.980000 56.100000 175 117 88 0
4.180000 12.980000 56.100000 175 117 88 0
4.400000 12.980000 56.100000 168 117 85 0
4.620000 12.980000 56.100000 169 118 86 0
4.840000 12.980000 56.100000 174 117 83 0
5.060000 12.980000 56.100000 174 117 83 0
5.280000 12.980000 56.100000 177 117 86 0
5.500000 12.980000 56.100000 178 118 87 0
5.720000 12.980000 56.100000 179 119 88 0
5.940000 12.980000 56.100000 177 117 86 0
6.160000 12.980000 56.100000 182 118 86 0
6.380000 12.980000 56.100000 184 120 88 0
6.600000 12.980000 56.100000 182 121 88 0
6.820000 12.980000 56.100000 183 122 89 0
7.040000 12.980000 56.100000 185 121 89 0
7.260000 12.980000 56.100000 187 123 91 0
7.480000 12.980000 56.100000 188 122 91 0
7.700000 12.980000 56.100000 188 122 91 0
7.920000 12.980000 56.100000 188 121 89 0
8.140000 12.980000 56.100000 187 120 88 0
8.360000 12.980000 56.100000 188 121 87 0
8.580000 12.980000 56.100000 188 121 87 0
8.800000 12.980000 56.100000 188 121 89 0
9.020000 12.980000 56.100000 190 123 91 0
9.240000 12.980000 56.100000 194 124 93 0
9.460000 12.980000 56.100000 195 125 94 0
9.680000 12.980000 56.100000 195 126 92 0
9.900000 12.980000 56.100000 196 127 93 0
10.120000 12.980000 56.100000 199 128 93 0
10.340000 12.980000 56.100000 198 127 92 0
10.560000 12.980000 56.100000 201 132 98 0
10.780000 12.980000 56.100000 199 130 96 0
11.000000 12.980000 56.100000 199 128 95 0
11.220000 12.980000 56.100000 199 128 95 0
11.440000 12.980000 56.100000 199 128 93 0
11.660000 12.980000 56.100000 199 128 93 0
11.880000 12.980000 56.100000 201 130 95 0
12.100000 12.980000 56.100000 201 130 95 0
12.320000 12.980000 56.100000 201 130 95 0
12.540000 12.980000 56.100000 203 132 97 0
12.760000 12.980000 56.100000 203 134 96 0
12.980000 12.980000 56.100000 203 134 96 0
13.200000 12.980000 56.100000 202 131 96 0
13.420000 12.980000 56.100000 203 132 97 0
13.640000 12.980000 56.100000 205 135 97 0
13.860000 12.980000 36.960000 205 135 97 0
14.080000 12.980000 56.100000 205 135 97 0
14.300000 12.980000 56.100000 205 135 97 0
14.520000 12.980000 20.680000 205 135 97 0
14.740000 12.980000 30.140000 206 136 98 0
14.960000 12.980000 38.500000 206 136 98 0
15.180000 12.980000 38.720000 210 140 102 0
15.400000 12.980000 38.720000 217 164 127 0
15.620000 12.980000 38.940000 254 201 164 0
15.840000 12.980000 40.040000 211 174 127 0
16.060000 12.980000 40.480000 202 165 118 0
16.280000 12.980000 48.400000 208 154 111 0
16.500000 12.980000 49.060000 202 148 105 0
16.720000 12.980000 49.500000 211 141 103 0
16.940000 12.980000 49.940000 210 140 102 0
17.160000 12.980000 43.560000 205 135 97 0
17.380000 12.980000 44.000000 207 137 99 0
17.600000 12.980000 44.440000 209 143 106 0
17.820000 12.980000 44.880000 204 138 101 0
18.040000 12.980000 45.540000 205 135 97 0
18.260000 12.980000 45.980000 200 130 92 0
18.480000 12.980000 46.420000 201 131 93 0
18.700000 12.980000 47.080000 202 132 94 0
18.920000 12.980000 47.740000 201 128 90 0
19.140000 12.980000 48.400000 203 130 92 0
19.360000 12.980000 49.060000 200 127 89 0
19.580000 12.980000 49.720000 199 126 88 0
19.800000 12.980000 50.380000 198 125 87 0
20.020000 12.980000 51.040000 199 126 88 0
20.240000 12.980000 51.700000 198 128 90 0
20.460000 12.980000 52.580000 202 132 94 0
20.680000 12.980000 53.020000 194 125 91 0
20.900000 12.980000 53.900000 192 123 89 0
21.120000 12.980000 54.560000 183 119 87 0
21.340000 12.980000 55.440000 182 118 86 0
21.560000 12.980000 56.100000 178 117 84 0
21.780000 12.980000 56.100000 171 110 77 0
22.000000 12.980000 56.100000 173 109 77 0
22.220000 12.980000 56.100000 176 112 80 0
22.440000 12.980000 56.100000 173 111 81 0
22.660000 12.980000 56.100000 172 110 80 0
22.880000 12.980000 56.100000 166 109 75 0
23.100000 12.980000 56.100000 164 107 73 0
23.320000 12.980000 56.100000 172 108 76 0
23.540000 12.980000 56.100000 178 114 82 0
23.760000 12.980000 56.100000 182 118 86 0
23.980000 12.980000 56.100000 183 119 87 0
24.200000 12.980000 56.100000 186 120 89 0
24.420000 12.980000 56.100000 186 120 89 0
24.640000 12.980000 56.100000 188 123 90 0
24.860000 12.980000 56.100000 191 126 93 0
25.080000 12.980000 56.100000 188 127 94 0
25.300000 12.980000 56.100000 188 127 94 0
25.520000 12.980000 56.100000 187 128 93 0
25.740000 12.980000 56.100000 187 128 93 0
25.960000 12.980000 56.100000 192 128 98 0
26.180000 12.980000 56.100000 193 129 99 0
26.400000 12.980000 56.100000 180 119 85 0
26.620000 12.980000 56.100000 185 124 90 0
26.840000 12.980000 56.100000 186 120 91 0
27.060000 12.980000 45.100000 173 107 78 0
27.280000 12.980000 12.760000 168 108 79 0
27.500000 12.980000 32.560000 170 110 81 0
27.720000 12.980000 15.840000 170 110 81 0
27.940000 12.980000 42.900000 167 107 78 0
28.160000 12.980000 50.820000 155 106 71 0
28.380000 12.980000 52.360000 158 109 74 0
28.600000 12.980000 53.680000 171 116 83 0
28.820000 12.980000 54.780000 168 113 80 0
29.040000 12.980000 49.500000 150 110 80 0
29.260000 12.980000 50.820000 140 100 70 0
29.480000 12.980000 56.100000 142 96 65 0
29.700000 12.980000 56.100000 146 100 69 0
29.920000 12.980000 53.460000 141 95 66 0
30.140000 12.980000 54.340000 123 77 48 0
30.360000 12.980000 56.100000 89 83 62 0
30.580000 12.980000 56.100000 123 117 96 0
30.800000 12.980000 56.100000 135 136 115 0
31.020000 12.980000 56.100000 134 135 114 0
31.240000 12.980000 56.100000 136 134 116 0
31.460000 12.980000 56.100000 136 134 116 0
31.680000 12.980000 56.100000 134 135 116 0
31.900000 12.980000 56.100000 133 134 115 0
32.120000 12.980000 56.100000 133 134 115 0
32.340000 12.980000 56.100000 132 133 114 0
32.560000 12.980000 56.100000 129 131 113 0
32.780000 12.980000 56.100000 122 124 106 0
33.000000 12.980000 56.100000 98 107 99 0
33.220000 12.980000 56.100000 67 76 68 0
2.640000 13.200000 56.100000 94 67 35 0
2.860000 13.200000 56.100000 137 110 78 0
3.080000 13.200000 56.100000 169 113 83 0
3.300000 13.200000 56.100000 172 116 86 0
3.520000 13.200000 56.100000 176 119 85 0
3.740000 13.200000 56.100000 178 121 87 0
3.960000 13.200000 56.100000 178 118 87 0
4.180000 13.200000 56.100000 179 119 88 0
4.400000 13.200000 56.100000 178 118 87 0
4.620000 13.200000 56.100000 179 119 88 0
4.840000 13.200000 56.100000 180 118 88 0
5.060000 13.200000 56.100000 180 118 88 0
5.280000 13.200000 56.100000 180 119 86 0
5.500000 13.200000 56.100000 180 119 86 0
5.720000 13.200000 56.100000 183 119 87 0
5.940000 13.200000 56.100000 182 118 86 0
6.160000 13.200000 56.100000 182 118 86 0
6.380000 13.200000 56.100000 182 118 86 0
6.600000 13.200000 56.100000 183 119 87 0
6.820000 13.200000 56.100000 184 120 88 0
7.040000 13.200000 56.100000 186 121 88 0
7.260000 13.200000 56.100000 189 124 91 0
7.480000 13.200000 56.100000 188 121 89 0
7.700000 13.200000 56.100000 187 120 88 0
7.920000 13.200000 56.100000 189 122 90 0
8.140000 13.200000 56.100000 187 120 88 0
8.360000 13.200000 56.100000 187 120 88 0
8.580000 13.200000 56.100000 186 119 87 0
8.800000 13.200000 56.100000 188 121 89 0
9.020000 13.200000 56.100000 190 123 91 0
9.240000 13.200000 56.100000 195 126 92 0
9.460000 13.200000 56.100000 195 126 92 0
9.680000 13.200000 56.100000 197 126 91 0
9.900000 13.200000 56.100000 198 127 92 0
10.120000 13.200000 56.100000 196 129 95 0
10.340000 13.200000 56.100000 198 131 97 0
10.560000 13.200000 56.100000 203 134 98 0
10.780000 13.200000 56.100000 198 129 93 0
11.000000 13.200000 56.100000 199 128 93 0
11.220000 13.200000 56.100000 199 128 93 0
11.440000 13.200000 56.100000 198 127 92 0
11.660000 13.200000 56.100000 199 128 93 0
11.880000 13.200000 56.100000 201 132 96 0
12.100000 13.200000 56.100000 200 131 95 0
12.320000 13.200000 56.100000 199 133 96 0
12.540000 13.200000 56.100000 204 138 101 0
12.760000 13.200000 56.100000 203 133 95 0
12.980000 13.200000 56.100000 203 133 95 0
13.200000 13.200000 56.100000 203 133 95 0
13.420000 13.200000 56.100000 203 133 95 0
13.640000 13.200000 56.100000 203 134 98 0
13.860000 13.200000 56.100000 205 136 100 0
14.080000 13.200000 56.100000 204 135 97 0
14.300000 13.200000 56.100000 205 136 98 0
14.520000 13.200000 56.100000 205 135 97 0
14.740000 13.200000 56.100000 206 136 98 0
14.960000 13.200000 56.100000 198 139 102 0
15.180000 13.200000 56.100000 211 152 115 0
15.400000 13.200000 56.100000 230 216 198 0
15.620000 13.200000 56.100000 229 215 197 0
15.840000 13.200000 56.100000 225 167 125 0
16.060000 13.200000 56.100000 209 151 109 0
16.280000 13.200000 44.220000 213 144 106 0
16.500000 13.200000 45.100000 206 137 99 0
16.720000 13.200000 45.980000 210 141 103 0
16.940000 13.200000 39.160000 209 140 102 0
17.160000 13.200000 40.040000 205 135 97 0
17.380000 13.200000 47.740000 204 134 96 0
17.600000 13.200000 48.180000 206 136 98 0
17.820000 13.200000 48.840000 204 134 96 0
18.040000 13.200000 49.280000 207 134 97 0
18.260000 13.200000 42.900000 202 129 92 0
18.480000 13.200000 43.340000 202 129 92 0
18.700000 13.200000 43.780000 202 129 92 0
18.920000 13.200000 51.260000 199 126 88 0
19.140000 13.200000 45.100000 201 128 90 0
19.360000 13.200000 45.760000 201 128 91 0
19.580000 13.200000 46.640000 201 128 91 0
19.800000 13.200000 47.300000 202 129 92 0
20.020000 13.200000 47.960000 200 127 90 0
20.240000 13.200000 49.060000 199 129 91 0
20.460000 13.200000 49.940000 201 131 93 0
20.680000 13.200000 50.820000 195 126 90 0
20.900000 13.200000 51.700000 192 123 87 0
21.120000 13.200000 52.580000 183 123 82 0
21.340000 13.200000 53.240000 188 128 87 0
21.560000 13.200000 54.120000 182 119 83 0
21.780000 13.200000 55.000000 176 113 77 0
22.000000 13.200000 55.880000 175 114 80 0
22.220000 13.200000 56.100000 176 115 81 0
22.440000 13.200000 56.100000 178 113 76 0
22.660000 13.200000 56.100000 177 112 75 0
22.880000 13.200000 56.100000 177 108 72 0
23.100000 13.200000 56.100000 175 106 70 0
23.320000 13.200000 56.100000 176 111 76 0
23.540000 13.200000 56.100000 180 115 80 0
23.760000 13.200000 56.100000 185 119 82 0
23.980000 13.200000 56.100000 188 122 85 0
24.200000 13.200000 56.100000 189 123 86 0
24.420000 13.200000 56.100000 190 124 87 0
24.640000 13.200000 56.100000 191 128 90 0
24.860000 13.200000 56.100000 191 128 90 0
25.080000 13.200000 56.100000 193 128 91 0
25.300000 13.200000 56.100000 194 129 92 0
25.520000 13.200000 56.100000 191 131 90 0
25.740000 13.200000 56.100000 193 133 92 0
25.960000 13.200000 56.100000 188 125 89 0
26.180000 13.200000 56.100000 185 122 86 0
26.400000 13.200000 56.100000 183 123 92 0
26.620000 13.200000 56.100000 175 115 84 0
26.840000 13.200000 56.100000 180 116 83 0
27.060000 13.200000 56.100000 175 111 78 0
27.280000 13.200000 56.100000 173 112 78 0
27.500000 13.200000 56.100000 178 117 83 0
27.720000 13.200000 56.100000 166 112 81 0
27.940000 13.200000 44.880000 158 104 73 0
28.160000 13.200000 46.860000 149 103 74 0
28.380000 13.200000 48.620000 142 96 67 0
28.600000 13.200000 50.820000 134 94 64 0
28.820000 13.200000 52.360000 143 103 73 0
29.040000 13.200000 53.680000 133 101 71 0
29.260000 13.200000 48.400000 129 97 67 0
29.480000 13.200000 56.100000 136 96 65 0
29.700000 13.200000 56.100000 133 93 62 0
29.920000 13.200000 56.100000 111 80 54 0
30.140000 13.200000 53.680000 96 65 39 0
30.360000 13.200000 56.100000 85 79 60 0
30.580000 13.200000 56.100000 127 121 102 0
30.800000 13.200000 56.100000 137 136 113 0
31.020000 13.200000 56.100000 137 136 113 0
31.240000 13.200000 56.100000 137 135 115 0
31.460000 13.200000 56.100000 136 134 114 0
31.680000 13.200000 56.100000 136 134 116 0
31.900000 13.200000 56.100000 136 134 116 0
32.120000 13.200000 56.100000 133 134 113 0
32.340000 13.200000 55.440000 133 134 113 0
32.560000 13.200000 55.440000 132 133 114 0
32.780000 13.200000 55.440000 126 127 108 0
33.000000 13.200000 55.440000 99 110 99 0
33.220000 13.200000 56.100000 69 80 69 0
2.640000 13.420000 56.100000 101 74 42 0
2.860000 13.420000 56.100000 146 119 87 0
3.080000 13.420000 55.880000 172 116 86 0
3.300000 13.420000 56.100000 174 118 88 0
3.520000 13.420000 56.100000 177 120 86 0
3.740000 13.420000 56.100000 177 120 86 0
3.960000 13.420000 56.100000 178 118 87 0
4.180000 13.420000 56.100000 179 119 88 0
4.400000 13.420000 56.100000 179 119 88 0
4.620000 13.420000 56.100000 180 120 89 0
4.840000 13.420000 56.100000 181 119 89 0
5.060000 13.420000 56.100000 181 119 89 0
5.280000 13.420000 56.100000 181 120 87 0
5.500000 13.420000 56.100000 181 120 87 0
5.720000 13.420000 56.100000 184 120 88 0
5.940000 13.420000 56.100000 183 119 87 0
6.160000 13.420000 56.100000 182 118 86 0
6.380000 13.420000 56.100000 182 118 86 0
6.600000 13.420000 56.100000 183 119 87 0
6.820000 13.420000 56.100000 183 119 87 0
7.040000 13.420000 56.100000 184 119 86 0
7.260000 13.420000 56.100000 187 122 89 0
7.480000 13.420000 56.100000 187 120 88 0
7.700000 13.420000 56.100000 187 120 88 0
7.920000 13.420000 56.100000 189 122 90 0
8.140000 13.420000 56.100000 187 120 88 0
8.360000 13.420000 56.100000 186 119 87 0
8.580000 13.420000 56.100000 187 120 88 0
8.800000 13.420000 56.100000 187 120 88 0
9.020000 13.420000 56.100000 190 123 91 0
9.240000 13.420000 56.100000 195 126 92 0
9.460000 13.420000 56.100000 196 127 93 0
9.680000 13.420000 56.100000 196 125 90 0
9.900000 13.420000 56.100000 197 126 91 0
10.120000 13.420000 56.100000 199 132 98 0
10.340000 13.420000 56.100000 203 136 102 0
10.560000 13.420000 56.100000 198 129 93 0
10.780000 13.420000 56.100000 198 129 93 0
11.000000 13.420000 56.100000 198 127 92 0
11.220000 13.420000 56.100000 197 126 91 0
11.440000 13.420000 56.100000 197 126 91 0
11.660000 13.420000 56.100000 199 128 93 0
11.880000 13.420000 56.100000 200 131 95 0
12.100000 13.420000 56.100000 204 135 99 0
12.320000 13.420000 56.100000 200 134 97 0
12.540000 13.420000 56.100000 199 133 96 0
12.760000 13.420000 56.100000 204 134 96 0
12.980000 13.420000 56.100000 203 133 95 0
13.200000 13.420000 56.100000 204 134 96 0
13.420000 13.420000 56.100000 204 134 96 0
13.640000 13.420000 56.100000 203 134 98 0
13.860000 13.420000 56.100000 204 135 99 0
14.080000 13.420000 56.100000 205 136 98 0
14.300000 13.420000 56.100000 204 135 97 0
14.520000 13.420000 56.100000 204 134 96 0
14.740000 13.420000 56.100000 207 137 99 0
14.960000 13.420000 56.100000 200 141 104 0
15.180000 13.420000 56.100000 226 167 130 0
15.400000 13.420000 56.100000 214 200 182 0
15.620000 13.420000 56.100000 204 190 172 0
15.840000 13.420000 56.100000 212 154 112 0
16.060000 13.420000 56.100000 210 152 110 0
16.280000 13.420000 56.100000 216 147 109 0
16.500000 13.420000 56.100000 207 138 100 0
16.720000 13.420000 56.100000 211 142 104 0
16.940000 13.420000 56.100000 207 138 100 0
17.160000 13.420000 56.100000 204 134 96 0
17.380000 13.420000 43.560000 202 132 94 0
17.600000 13.420000 44.220000 208 138 100 0
17.820000 13.420000 45.100000 205 135 97 0
18.040000 13.420000 45.540000 204 131 94 0
18.260000 13.420000 38.940000 204 131 94 0
18.480000 13.420000 39.820000 206 133 96 0
18.700000 13.420000 47.740000 204 131 94 0
18.920000 13.420000 48.400000 201 128 90 0
19.140000 13.420000 49.060000 203 130 92 0
19.360000 13.420000 49.720000 203 130 93 0
19.580000 13.420000 43.560000 202 129 92 0
19.800000 13.420000 51.040000 203 130 93 0
20.020000 13.420000 44.660000 201 128 91 0
20.240000 13.420000 45.540000 197 127 89 0
20.460000 13.420000 53.460000 199 129 91 0
20.680000 13.420000 47.740000 197 128 92 0
20.900000 13.420000 48.840000 195 126 90 0
21.120000 13.420000 49.940000 183 123 82 0
21.340000 13.420000 51.040000 181 121 80 0
21.560000 13.420000 51.920000 180 117 81 0
21.780000 13.420000 52.800000 180 117 81 0
22.000000 13.420000 53.680000 177 116 82 0
22.220000 13.420000 54.340000 176 115 81 0
22.440000 13.420000 55.440000 179 114 77 0
22.660000 13.420000 56.100000 178 113 76 0
22.880000 13.420000 56.100000 180 111 75 0
23.100000 13.420000 56.100000 179 110 74 0
23.320000 13.420000 56.100000 176 111 76 0
23.540000 13.420000 56.100000 182 117 82 0
23.760000 13.420000 56.100000 188 122 85 0
23.980000 13.420000 56.100000 190 124 87 0
24.200000 13.420000 56.100000 191 125 88 0
24.420000 13.420000 56.100000 194 128 91 0
24.640000 13.420000 56.100000 194 131 93 0
24.860000 13.420000 56.100000 193 130 92 0
25.080000 13.420000 56.100000 190 125 88 0
25.300000 13.420000 56.100000 189 124 87 0
25.520000 13.420000 56.100000 190 130 89 0
25.740000 13.420000 56.100000 190 130 89 0
25.960000 13.420000 56.100000 182 119 83 0
26.180000 13.420000 56.100000 179 116 80 0
26.400000 13.420000 56.100000 175 115 84 0
26.620000 13.420000 56.100000 172 112 81 0
26.840000 13.420000 56.100000 178 114 81 0
27.060000 13.420000 56.100000 181 117 84 0
27.280000 13.420000 56.100000 178 117 83 0
27.500000 13.420000 56.100000 182 121 87 0
27.720000 13.420000 56.100000 164 110 79 0
27.940000 13.420000 56.100000 146 92 61 0
28.160000 13.420000 56.100000 137 91 62 0
28.380000 13.420000 44.440000 128 82 53 0
28.600000 13.420000 48.400000 123 83 53 0
28.820000 13.420000 50.160000 129 89 59 0
29.040000 13.420000 51.700000 123 91 61 0
29.260000 13.420000 52.580000 128 96 66 0
29.480000 13.420000 47.080000 129 89 58 0
29.700000 13.420000 49.060000 114 74 43 0
29.920000 13.420000 56.100000 94 63 37 0
30.140000 13.420000 52.580000 93 62 36 0
30.360000 13.420000 54.780000 87 81 62 0
30.580000 13.420000 56.100000 125 119 100 0
30.800000 13.420000 56.100000 137 136 113 0
31.020000 13.420000 56.100000 137 136 113 0
31.240000 13.420000 56.100000 137 135 115 0
31.460000 13.420000 56.100000 137 135 115 0
31.680000 13.420000 56.100000 136 134 116 0
31.900000 13.420000 56.100000 136 134 116 0
32.120000 13.420000 56.100000 133 134 113 0
32.340000 13.420000 56.100000 133 134 113 0
32.560000 13.420000 56.100000 131 132 113 0
32.780000 13.420000 56.100000 127 128 109 0
33.000000 13.420000 52.800000 101 112 101 0
33.220000 13.420000 52.580000 72 83 72 0
2.640000 13.640000 56.100000 107 76 43 0
2.860000 13.640000 56.100000 146 115 82 0
3.080000 13.640000 53.460000 174 117 85 0
3.300000 13.640000 53.680000 177 120 88 0
3.520000 13.640000 54.120000 179 119 88 0
3.740000 13.640000 54.120000 179 119 88 0
3.960000 13.640000 54.560000 180 120 87 0
4.180000 13.640000 55.000000 179 119 86 0
4.400000 13.640000 55.220000 181 119 89 0
4.620000 13.640000 55.440000 181 119 89 0
4.840000 13.640000 55.660000 181 120 87 0
5.060000 13.640000 55.660000 182 121 88 0
5.280000 13.640000 56.100000 184 120 88 0
5.500000 13.640000 56.100000 183 119 87 0
5.720000 13.640000 56.100000 179 118 85 0
5.940000 13.640000 56.100000 181 120 87 0
6.160000 13.640000 56.100000 183 117 86 0
6.380000 13.640000 56.100000 184 118 87 0
6.600000 13.640000 56.100000 183 119 87 0
6.820000 13.640000 56.100000 183 119 87 0
7.040000 13.640000 56.100000 184 118 87 0
7.260000 13.640000 56.100000 186 120 89 0
7.480000 13.640000 56.100000 187 123 90 0
7.700000 13.640000 56.100000 187 123 90 0
7.920000 13.640000 56.100000 186 119 88 0
8.140000 13.640000 56.100000 184 117 86 0
8.360000 13.640000 56.100000 184 117 85 0
8.580000 13.640000 56.100000 186 119 87 0
8.800000 13.640000 56.100000 190 120 89 0
9.020000 13.640000 56.100000 193 123 92 0
9.240000 13.640000 56.100000 194 125 91 0
9.460000 13.640000 56.100000 193 124 90 0
9.680000 13.640000 56.100000 194 125 91 0
9.900000 13.640000 56.100000 197 128 94 0
10.120000 13.640000 56.100000 202 133 99 0
10.340000 13.640000 56.100000 198 129 95 0
10.560000 13.640000 56.100000 197 126 91 0
10.780000 13.640000 56.100000 199 128 93 0
11.000000 13.640000 56.100000 197 128 94 0
11.220000 13.640000 56.100000 195 126 92 0
11.440000 13.640000 56.100000 199 128 93 0
11.660000 13.640000 56.100000 200 129 94 0
11.880000 13.640000 56.100000 204 135 99 0
12.100000 13.640000 56.100000 202 133 97 0
12.320000 13.640000 56.100000 202 131 96 0
12.540000 13.640000 56.100000 202 131 96 0
12.760000 13.640000 56.100000 202 131 96 0
12.980000 13.640000 56.100000 203 132 97 0
13.200000 13.640000 56.100000 204 134 96 0
13.420000 13.640000 56.100000 206 136 98 0
13.640000 13.640000 56.100000 204 135 99 0
13.860000 13.640000 56.100000 204 135 99 0
14.080000 13.640000 56.100000 204 134 96 0
14.300000 13.640000 56.100000 203 133 95 0
14.520000 13.640000 56.100000 203 133 95 0
14.740000 13.640000 56.100000 204 134 96 0
14.960000 13.640000 56.100000 178 152 124 0
15.180000 13.640000 56.100000 220 194 166 0
15.400000 13.640000 56.100000 206 171 126 0
15.620000 13.640000 56.100000 215 180 135 0
15.840000 13.640000 56.100000 212 143 107 0
16.060000 13.640000 56.100000 206 137 101 0
16.280000 13.640000 56.100000 203 148 104 0
16.500000 13.640000 56.100000 210 155 111 0
16.720000 13.640000 56.100000 213 143 105 0
16.940000 13.640000 56.100000 206 136 98 0
17.160000 13.640000 56.100000 211 138 101 0
17.380000 13.640000 56.100000 202 129 92 0
17.600000 13.640000 56.100000 201 128 90 0
17.820000 13.640000 56.100000 202 129 91 0
18.040000 13.640000 56.100000 211 141 103 0
18.260000 13.640000 56.100000 201 131 93 0
18.480000 13.640000 56.100000 207 137 99 0
18.700000 13.640000 43.340000 207 137 99 0
18.920000 13.640000 44.440000 203 133 95 0
19.140000 13.640000 45.320000 201 131 93 0
19.360000 13.640000 38.720000 204 134 96 0
19.580000 13.640000 39.820000 196 126 88 0
19.800000 13.640000 33.000000 197 127 89 0
20.020000 13.640000 24.860000 201 131 93 0
20.240000 13.640000 42.460000 199 129 91 0
20.460000 13.640000 50.600000 196 126 88 0
20.680000 13.640000 51.480000 197 128 90 0
20.900000 13.640000 45.320000 197 128 90 0
21.120000 13.640000 53.460000 188 121 87 0
21.340000 13.640000 47.740000 184 117 83 0
21.560000 13.640000 49.060000 181 116 81 0
21.780000 13.640000 50.380000 183 118 83 0
22.000000 13.640000 51.260000 185 119 82 0
22.220000 13.640000 52.140000 183 117 80 0
22.440000 13.640000 53.240000 183 116 82 0
22.660000 13.640000 53.900000 182 115 81 0
22.880000 13.640000 54.780000 180 113 79 0
23.100000 13.640000 55.660000 182 115 81 0
23.320000 13.640000 56.100000 180 114 77 0
23.540000 13.640000 56.100000 182 116 79 0
23.760000 13.640000 56.100000 189 120 82 0
23.980000 13.640000 56.100000 192 123 85 0
24.200000 13.640000 56.100000 191 125 85 0
24.420000 13.640000 56.100000 197 131 91 0
24.640000 13.640000 56.100000 198 132 93 0
24.860000 13.640000 56.100000 197 131 92 0
25.080000 13.640000 56.100000 179 119 86 0
25.300000 13.640000 56.100000 177 117 84 0
25.520000 13.640000 56.100000 196 128 88 0
25.740000 13.640000 56.100000 196 128 88 0
25.960000 13.640000 56.100000 180 116 83 0
26.180000 13.640000 56.100000 178 114 81 0
26.400000 13.640000 56.100000 170 114 84 0
26.620000 13.640000 56.100000 166 110 80 0
26.840000 13.640000 56.100000 171 114 80 0
27.060000 13.640000 56.100000 173 116 82 0
27.280000 13.640000 56.100000 172 117 84 0
27.500000 13.640000 56.100000 170 115 82 0
27.720000 13.640000 56.100000 145 100 74 0
27.940000 13.640000 56.100000 128 83 57 0
28.160000 13.640000 56.100000 120 84 55 0
28.380000 13.640000 56.100000 112 76 47 0
28.600000 13.640000 45.100000 115 78 54 0
28.820000 13.640000 48.180000 124 87 63 0
29.040000 13.640000 49.500000 131 93 65 0
29.260000 13.640000 56.100000 128 90 62 0
29.480000 13.640000 51.920000 113 81 53 0
29.700000 13.640000 47.080000 104 72 44 0
29.920000 13.640000 49.280000 102 67 40 0
30.140000 13.640000 51.040000 104 69 42 0
30.360000 13.640000 56.100000 94 83 61 0
30.580000 13.640000 55.440000 128 117 95 0
30.800000 13.640000 55.880000 135 136 115 0
31.020000 13.640000 55.880000 135 136 115 0
31.240000 13.640000 55.880000 134 137 113 0
31.460000 13.640000 56.100000 134 137 113 0
31.680000 13.640000 56.100000 138 135 115 0
31.900000 13.640000 56.100000 137 134 114 0
32.120000 13.640000 56.100000 132 134 115 0
32.340000 13.640000 56.100000 132 134 115 0
32.560000 13.640000 56.100000 132 133 114 0
32.780000 13.640000 56.100000 128 129 110 0
33.000000 13.640000 56.100000 102 115 101 0
33.220000 13.640000 56.100000 73 86 72 0
2.640000 13.860000 56.100000 113 82 49 0
2.860000 13.860000 56.100000 148 117 84 0
3.080000 13.860000 56.100000 176 119 87 0
3.300000 13.860000 56.100000 177 120 88 0
3.520000 13.860000 56.100000 181 121 90 0
3.740000 13.860000 51.700000 181 121 90 0
3.960000 13.860000 51.920000 180 120 87 0
4.180000 13.860000 52.360000 180 120 87 0
4.400000 13.860000 52.800000 180 118 88 0
4.620000 13.860000 53.020000 182 120 90 0
4.840000 13.860000 53.240000 181 120 87 0
5.060000 13.860000 53.680000 182 121 88 0
5.280000 13.860000 53.680000 183 119 87 0
5.500000 13.860000 54.120000 183 119 87 0
5.720000 13.860000 54.120000 179 118 85 0
5.940000 13.860000 56.100000 182 121 88 0
6.160000 13.860000 56.100000 185 119 88 0
6.380000 13.860000 56.100000 184 118 87 0
6.600000 13.860000 56.100000 182 118 86 0
6.820000 13.860000 56.100000 184 120 88 0
7.040000 13.860000 56.100000 185 119 88 0
7.260000 13.860000 56.100000 186 120 89 0
7.480000 13.860000 56.100000 185 121 88 0
7.700000 13.860000 56.100000 181 117 84 0
7.920000 13.860000 56.100000 183 116 85 0
8.140000 13.860000 56.100000 184 117 86 0
8.360000 13.860000 56.100000 187 120 88 0
8.580000 13.860000 56.100000 189 122 90 0
8.800000 13.860000 56.100000 193 123 92 0
9.020000 13.860000 56.100000 195 125 94 0
9.240000 13.860000 56.100000 195 126 92 0
9.460000 13.860000 56.100000 195 126 92 0
9.680000 13.860000 56.100000 195 126 92 0
9.900000 13.860000 56.100000 194 125 91 0
10.120000 13.860000 56.100000 195 126 92 0
10.340000 13.860000 56.100000 198 129 95 0
10.560000 13.860000 56.100000 198 127 92 0
10.780000 13.860000 56.100000 197 126 91 0
11.000000 13.860000 56.100000 196 127 93 0
11.220000 13.860000 56.100000 197 128 94 0
11.440000 13.860000 56.100000 203 132 97 0
11.660000 13.860000 56.100000 203 132 97 0
11.880000 13.860000 56.100000 202 133 97 0
12.100000 13.860000 56.100000 201 132 96 0
12.320000 13.860000 56.100000 202 131 96 0
12.540000 13.860000 56.100000 202 131 96 0
12.760000 13.860000 56.100000 202 131 96 0
12.980000 13.860000 56.100000 205 134 99 0
13.200000 13.860000 56.100000 206 136 98 0
13.420000 13.860000 56.100000 205 135 97 0
13.640000 13.860000 56.100000 202 133 97 0
13.860000 13.860000 56.100000 203 134 98 0
14.080000 13.860000 56.100000 203 133 95 0
14.300000 13.860000 56.100000 202 132 94 0
14.520000 13.860000 56.100000 205 135 97 0
14.740000 13.860000 56.100000 209 139 101 0
14.960000 13.860000 56.100000 186 160 132 0
15.180000 13.860000 56.100000 212 186 158 0
15.400000 13.860000 56.100000 197 162 117 0
15.620000 13.860000 56.100000 188 153 108 0
15.840000 13.860000 56.100000 207 138 102 0
16.060000 13.860000 56.100000 210 141 105 0
16.280000 13.860000 56.100000 209 154 110 0
16.500000 13.860000 56.100000 205 150 106 0
16.720000 13.860000 56.100000 210 140 102 0
16.940000 13.860000 56.100000 210 140 102 0
17.160000 13.860000 56.100000 206 133 96 0
17.380000 13.860000 56.100000 198 125 88 0
17.600000 13.860000 56.100000 201 128 90 0
17.820000 13.860000 56.100000 206 133 95 0
18.040000 13.860000 56.100000 209 139 101 0
18.260000 13.860000 56.100000 207 137 99 0
18.480000 13.860000 56.100000 209 139 101 0
18.700000 13.860000 56.100000 204 134 96 0
18.920000 13.860000 56.100000 205 135 97 0
19.140000 13.860000 56.100000 202 132 94 0
19.360000 13.860000 56.100000 203 133 95 0
19.580000 13.860000 56.100000 200 130 92 0
19.800000 13.860000 36.520000 202 132 94 0
20.020000 13.860000 56.100000 201 131 93 0
20.240000 13.860000 30.580000 198 128 90 0
20.460000 13.860000 47.300000 198 128 90 0
20.680000 13.860000 48.400000 196 127 89 0
20.900000 13.860000 42.240000 195 126 88 0
21.120000 13.860000 50.380000 189 122 88 0
21.340000 13.860000 44.440000 186 119 85 0
21.560000 13.860000 45.540000 180 115 80 0
21.780000 13.860000 46.860000 183 118 83 0
22.000000 13.860000 48.180000 186 120 83 0
22.220000 13.860000 49.500000 187 121 84 0
22.440000 13.860000 50.380000 187 120 86 0
22.660000 13.860000 51.480000 186 119 85 0
22.880000 13.860000 52.360000 184 117 83 0
23.100000 13.860000 53.240000 185 118 84 0
23.320000 13.860000 56.100000 185 119 82 0
23.540000 13.860000 56.100000 185 119 82 0
23.760000 13.860000 55.440000 189 120 82 0
23.980000 13.860000 56.100000 192 123 85 0
24.200000 13.860000 56.100000 193 127 87 0
24.420000 13.860000 56.100000 198 132 92 0
24.640000 13.860000 56.100000 200 134 95 0
24.860000 13.860000 56.100000 199 133 94 0
25.080000 13.860000 56.100000 189 129 96 0
25.300000 13.860000 56.100000 187 127 94 0
25.520000 13.860000 56.100000 194 126 86 0
25.740000 13.860000 56.100000 191 123 83 0
25.960000 13.860000 56.100000 173 109 76 0
26.180000 13.860000 56.100000 173 109 76 0
26.400000 13.860000 56.100000 167 111 81 0
26.620000 13.860000 56.100000 156 100 70 0
26.840000 13.860000 56.100000 156 99 65 0
27.060000 13.860000 56.100000 162 105 71 0
27.280000 13.860000 56.100000 161 106 73 0
27.500000 13.860000 56.100000 155 100 67 0
27.720000 13.860000 56.100000 129 84 58 0
27.940000 13.860000 56.100000 124 79 53 0
28.160000 13.860000 56.100000 115 79 50 0
28.380000 13.860000 56.100000 111 75 46 0
28.600000 13.860000 56.100000 122 85 61 0
28.820000 13.860000 44.880000 130 93 69 0
29.040000 13.860000 46.640000 128 90 62 0
29.260000 13.860000 55.000000 123 85 57 0
29.480000 13.860000 49.940000 123 91 63 0
29.700000 13.860000 51.700000 125 93 65 0
29.920000 13.860000 53.460000 120 85 58 0
30.140000 13.860000 48.840000 116 81 54 0
30.360000 13.860000 50.600000 99 88 66 0
30.580000 13.860000 52.800000 124 113 91 0
30.800000 13.860000 53.020000 135 136 115 0
31.020000 13.860000 53.240000 136 137 116 0
