ply
format ascii 1.0
element vertex 1149
property float x
property float y
property float z
property uchar red
property uchar green
property uchar blue
property uchar alpha
end_header
24.200000 24.200000 25.520000 57 58 57 0
24.420000 24.200000 25.520000 57 58 57 0
24.640000 24.200000 25.520000 58 59 58 0
24.860000 24.200000 25.740000 57 58 57 0
25.080000 24.200000 25.960000 57 58 57 0
25.300000 24.200000 26.180000 54 55 54 0
25.520000 24.200000 25.960000 47 48 47 0
25.740000 24.200000 25.740000 43 44 43 0
25.960000 24.200000 25.300000 48 49 48 0
26.180000 24.200000 25.080000 56 57 56 0
26.400000 24.200000 25.080000 61 62 61 0
26.620000 24.200000 25.080000 65 66 65 0
26.840000 24.200000 25.080000 67 68 67 0
27.060000 24.200000 24.860000 68 69 68 0
27.280000 24.200000 24.860000 70 71 70 0
27.500000 24.200000 24.860000 68 69 68 0
27.720000 24.200000 24.860000 67 68 67 0
27.940000 24.200000 25.080000 65 66 65 0
28.160000 24.200000 25.080000 66 67 66 0
28.380000 24.200000 25.080000 67 68 67 0
28.600000 24.200000 25.080000 67 68 67 0
28.820000 24.200000 25.300000 67 68 67 0
29.040000 24.200000 25.300000 68 69 68 0
29.260000 24.200000 25.300000 70 71 70 0
29.480000 24.200000 25.300000 74 75 74 0
29.700000 24.200000 25.300000 80 81 80 0
29.920000 24.200000 25.520000 86 87 86 0
30.140000 24.200000 25.520000 92 93 92 0
30.360000 24.200000 25.300000 97 98 97 0
30.580000 24.200000 25.300000 102 103 102 0
30.800000 24.200000 25.080000 104 105 104 0
31.020000 24.200000 24.860000 104 105 104 0
31.240000 24.200000 35.420000 101 102 101 0
31.460000 24.200000 35.420000 99 100 99 0
31.680000 24.200000 35.200000 97 98 97 0
31.900000 24.200000 35.200000 92 93 92 0
32.120000 24.200000 35.200000 87 88 87 0
32.340000 24.200000 35.200000 81 82 81 0
32.560000 24.200000 35.420000 75 76 75 0
32.780000 24.200000 35.420000 70 71 70 0
33.000000 24.200000 35.420000 65 66 65 0
33.220000 24.200000 25.080000 62 63 62 0
33.440000 24.200000 25.080000 59 60 59 0
33.660000 24.200000 25.300000 58 59 58 0
33.880000 24.200000 25.300000 61 62 61 0
34.100000 24.200000 25.520000 67 68 67 0
34.320000 24.200000 25.740000 76 77 76 0
34.540000 24.200000 25.740000 84 85 84 0
34.760000 24.200000 26.180000 93 94 93 0
34.980000 24.200000 28.600000 104 105 104 0
0.000000 24.420000 13.200000 4 5 4 0
0.220000 24.420000 12.760000 6 7 6 0
0.440000 24.420000 24.200000 11 12 11 0
0.660000 24.420000 34.540000 18 19 18 0
0.880000 24.420000 34.320000 24 25 24 0
1.100000 24.420000 34.100000 29 30 29 0
1.320000 24.420000 33.880000 34 35 34 0
1.540000 24.420000 33.660000 41 42 41 0
1.760000 24.420000 33.440000 48 49 48 0
1.980000 24.420000 33.220000 55 56 55 0
2.200000 24.420000 33.000000 62 63 62 0
2.420000 24.420000 32.780000 71 72 71 0
2.640000 24.420000 32.560000 77 78 77 0
2.860000 24.420000 32.340000 84 85 84 0
3.080000 24.420000 32.120000 90 91 90 0
3.300000 24.420000 31.900000 98 99 98 0
3.520000 24.420000 31.900000 104 105 104 0
3.740000 24.420000 31.680000 110 111 110 0
3.960000 24.420000 31.460000 116 117 116 0
4.180000 24.420000 31.240000 120 121 120 0
4.400000 24.420000 31.240000 124 125 124 0
4.620000 24.420000 31.020000 128 129 128 0
4.840000 24.420000 30.800000 131 132 131 0
5.060000 24.420000 30.800000 134 135 134 0
5.280000 24.420000 30.580000 137 138 137 0
5.500000 24.420000 30.360000 139 140 139 0
5.720000 24.420000 30.140000 141 142 141 0
5.940000 24.420000 29.920000 141 142 141 0
6.160000 24.420000 29.700000 140 141 140 0
6.380000 24.420000 29.480000 141 142 141 0
6.600000 24.420000 29.260000 141 142 141 0
6.820000 24.420000 29.260000 141 142 141 0
7.040000 24.420000 29.040000 138 139 138 0
7.260000 24.420000 28.820000 136 137 136 0
7.480000 24.420000 28.820000 132 133 132 0
7.700000 24.420000 28.600000 129 130 129 0
7.920000 24.420000 28.380000 125 126 125 0
8.140000 24.420000 28.380000 120 121 120 0
8.360000 24.420000 28.160000 115 116 115 0
8.580000 24.420000 27.940000 110 111 110 0
8.800000 24.420000 27.940000 104 105 104 0
9.020000 24.420000 27.720000 98 99 98 0
9.240000 24.420000 27.500000 94 95 94 0
9.460000 24.420000 27.280000 87 88 87 0
9.680000 24.420000 27.060000 82 83 82 0
9.900000 24.420000 26.840000 76 77 76 0
10.120000 24.420000 26.840000 70 71 70 0
10.340000 24.420000 26.620000 66 67 66 0
10.560000 24.420000 26.400000 64 65 64 0
10.780000 24.420000 26.400000 62 63 62 0
11.000000 24.420000 26.180000 60 61 60 0
11.220000 24.420000 26.180000 59 60 59 0
11.440000 24.420000 25.960000 59 60 59 0
11.660000 24.420000 25.960000 59 60 59 0
11.880000 24.420000 25.960000 59 60 59 0
12.100000 24.420000 25.960000 60 61 60 0
12.320000 24.420000 25.740000 61 62 61 0
12.540000 24.420000 25.740000 60 61 60 0
12.760000 24.420000 25.740000 59 60 59 0
12.980000 24.420000 25.740000 58 59 58 0
13.200000 24.420000 25.740000 57 58 57 0
13.420000 24.420000 25.520000 56 57 56 0
13.640000 24.420000 25.520000 56 57 56 0
13.860000 24.420000 25.520000 57 58 57 0
14.080000 24.420000 25.520000 56 57 56 0
14.300000 24.420000 25.520000 56 57 56 0
14.520000 24.420000 25.520000 56 57 56 0
14.740000 24.420000 25.520000 55 56 55 0
14.960000 24.420000 25.300000 56 57 56 0
15.180000 24.420000 25.300000 55 56 55 0
15.400000 24.420000 25.300000 55 56 55 0
15.620000 24.420000 25.300000 55 56 55 0
15.840000 24.420000 25.300000 56 57 56 0
16.060000 24.420000 25.300000 55 56 55 0
16.280000 24.420000 25.300000 55 56 55 0
16.500000 24.420000 25.300000 55 56 55 0
16.720000 24.420000 25.080000 56 57 56 0
16.940000 24.420000 25.080000 56 57 56 0
17.160000 24.420000 25.080000 55 56 55 0
17.380000 24.420000 25.080000 56 57 56 0
17.600000 24.420000 25.080000 56 57 56 0
17.820000 24.420000 25.080000 55 56 55 0
18.040000 24.420000 25.080000 56 57 56 0
18.260000 24.420000 25.080000 56 57 56 0
18.480000 24.420000 24.860000 55 56 55 0
18.700000 24.420000 24.860000 56 57 56 0
18.920000 24.420000 24.860000 55 56 55 0
19.140000 24.420000 24.860000 55 56 55 0
19.360000 24.420000 24.860000 56 57 56 0
19.580000 24.420000 24.860000 56 57 56 0
19.800000 24.420000 24.860000 55 56 55 0
20.020000 24.420000 24.860000 56 57 56 0
20.240000 24.420000 24.640000 56 57 56 0
20.460000 24.420000 24.640000 56 57 56 0
20.680000 24.420000 24.640000 56 57 56 0
20.900000 24.420000 24.640000 56 57 56 0
21.120000 24.420000 24.640000 56 57 56 0
21.340000 24.420000 24.640000 56 57 56 0
21.560000 24.420000 24.640000 55 56 55 0
21.780000 24.420000 24.640000 54 55 54 0
22.000000 24.420000 24.420000 55 56 55 0
22.220000 24.420000 24.420000 55 56 55 0
22.440000 24.420000 24.420000 57 58 57 0
22.660000 24.420000 24.420000 57 58 57 0
22.880000 24.420000 24.420000 57 58 57 0
23.100000 24.420000 24.420000 57 58 57 0
23.320000 24.420000 24.420000 57 58 57 0
23.540000 24.420000 24.420000 58 59 58 0
23.760000 24.420000 24.420000 58 59 58 0
23.980000 24.420000 24.420000 58 59 58 0
24.200000 24.420000 24.420000 58 59 58 0
24.420000 24.420000 24.420000 59 60 59 0
24.640000 24.420000 24.420000 58 59 58 0
24.860000 24.420000 24.420000 58 59 58 0
25.080000 24.420000 24.420000 57 58 57 0
25.300000 24.420000 24.860000 56 57 56 0
25.520000 24.420000 24.860000 55 56 55 0
25.740000 24.420000 24.640000 55 56 55 0
25.960000 24.420000 24.420000 57 58 57 0
26.180000 24.420000 23.980000 62 63 62 0
26.400000 24.420000 23.760000 66 67 66 0
26.620000 24.420000 23.760000 69 70 69 0
26.840000 24.420000 23.760000 72 73 72 0
27.060000 24.420000 23.540000 74 75 74 0
27.280000 24.420000 23.540000 74 75 74 0
27.500000 24.420000 23.540000 70 71 70 0
27.720000 24.420000 23.760000 66 67 66 0
27.940000 24.420000 23.760000 65 66 65 0
28.160000 24.420000 23.980000 67 68 67 0
28.380000 24.420000 23.980000 69 70 69 0
28.600000 24.420000 23.980000 71 72 71 0
28.820000 24.420000 23.980000 72 73 72 0
29.040000 24.420000 23.980000 73 74 73 0
29.260000 24.420000 24.200000 75 76 75 0
29.480000 24.420000 24.200000 78 79 78 0
29.700000 24.420000 24.200000 84 85 84 0
29.920000 24.420000 24.200000 89 90 89 0
30.140000 24.420000 24.200000 96 97 96 0
30.360000 24.420000 23.980000 102 103 102 0
30.580000 24.420000 23.980000 104 105 104 0
30.800000 24.420000 23.760000 107 108 107 0
31.020000 24.420000 34.540000 107 108 107 0
31.240000 24.420000 34.320000 105 106 105 0
31.460000 24.420000 34.320000 105 106 105 0
31.680000 24.420000 34.320000 102 103 102 0
31.900000 24.420000 34.320000 98 99 98 0
32.120000 24.420000 34.320000 91 92 91 0
32.340000 24.420000 34.320000 85 86 85 0
32.560000 24.420000 34.540000 79 80 79 0
32.780000 24.420000 34.540000 73 74 73 0
33.000000 24.420000 34.540000 69 70 69 0
33.220000 24.420000 23.980000 63 64 63 0
33.440000 24.420000 23.980000 62 63 62 0
33.660000 24.420000 24.200000 62 63 62 0
33.880000 24.420000 24.200000 67 68 67 0
34.100000 24.420000 24.420000 75 76 75 0
34.320000 24.420000 24.640000 82 83 82 0
34.540000 24.420000 24.860000 91 92 91 0
34.760000 24.420000 26.180000 101 102 101 0
34.980000 24.420000 28.820000 110 111 110 0
0.000000 24.640000 12.760000 6 7 6 0
0.220000 24.640000 12.320000 6 7 6 0
0.440000 24.640000 23.320000 8 9 8 0
0.660000 24.640000 22.660000 16 17 16 0
0.880000 24.640000 33.220000 27 28 27 0
1.100000 24.640000 33.000000 40 41 40 0
1.320000 24.640000 32.780000 50 51 50 0
1.540000 24.640000 32.560000 57 58 57 0
1.760000 24.640000 32.340000 66 67 66 0
1.980000 24.640000 32.120000 74 75 74 0
2.200000 24.640000 31.900000 81 82 81 0
2.420000 24.640000 31.680000 87 88 87 0
2.640000 24.640000 31.460000 95 96 95 0
2.860000 24.640000 31.240000 101 102 101 0
3.080000 24.640000 31.020000 107 108 107 0
3.300000 24.640000 31.020000 113 114 113 0
3.520000 24.640000 30.800000 117 118 117 0
3.740000 24.640000 30.580000 122 123 122 0
3.960000 24.640000 30.580000 126 127 126 0
4.180000 24.640000 30.360000 129 130 129 0
4.400000 24.640000 30.140000 131 132 131 0
4.620000 24.640000 29.920000 134 135 134 0
4.840000 24.640000 29.700000 136 137 136 0
5.060000 24.640000 29.700000 138 139 138 0
5.280000 24.640000 29.480000 139 140 139 0
5.500000 24.640000 29.260000 139 140 139 0
5.720000 24.640000 29.040000 138 139 138 0
5.940000 24.640000 28.820000 137 138 137 0
6.160000 24.640000 28.600000 136 137 136 0
6.380000 24.640000 28.380000 136 137 136 0
6.600000 24.640000 28.380000 134 135 134 0
6.820000 24.640000 28.160000 131 132 131 0
7.040000 24.640000 27.940000 126 127 126 0
7.260000 24.640000 27.940000 122 123 122 0
7.480000 24.640000 27.720000 117 118 117 0
7.700000 24.640000 27.720000 112 113 112 0
7.920000 24.640000 27.500000 106 107 106 0
8.140000 24.640000 27.280000 102 103 102 0
8.360000 24.640000 27.060000 95 96 95 0
8.580000 24.640000 26.840000 90 91 90 0
8.800000 24.640000 26.620000 85 86 85 0
9.020000 24.640000 26.620000 79 80 79 0
9.240000 24.640000 26.400000 73 74 73 0
9.460000 24.640000 26.180000 68 69 68 0
9.680000 24.640000 25.960000 63 64 63 0
9.900000 24.640000 25.740000 59 60 59 0
10.120000 24.640000 25.740000 56 57 56 0
10.340000 24.640000 25.520000 53 54 53 0
10.560000 24.640000 25.300000 52 53 52 0
10.780000 24.640000 25.300000 52 53 52 0
11.000000 24.640000 25.300000 52 53 52 0
11.220000 24.640000 25.080000 52 53 52 0
11.440000 24.640000 25.080000 52 53 52 0
11.660000 24.640000 24.860000 53 54 53 0
11.880000 24.640000 24.860000 54 55 54 0
12.100000 24.640000 24.860000 54 55 54 0
12.320000 24.640000 24.860000 54 55 54 0
12.540000 24.640000 24.860000 55 56 55 0
12.760000 24.640000 24.640000 54 55 54 0
12.980000 24.640000 24.640000 52 53 52 0
13.200000 24.640000 24.640000 52 53 52 0
13.420000 24.640000 24.640000 52 53 52 0
13.640000 24.640000 24.640000 53 54 53 0
13.860000 24.640000 24.420000 53 54 53 0
14.080000 24.640000 24.420000 53 54 53 0
14.300000 24.640000 24.420000 53 54 53 0
14.520000 24.640000 24.420000 54 55 54 0
14.740000 24.640000 24.420000 54 55 54 0
14.960000 24.640000 24.420000 54 55 54 0
15.180000 24.640000 24.200000 53 54 53 0
15.400000 24.640000 24.200000 54 55 54 0
15.620000 24.640000 24.200000 54 55 54 0
15.840000 24.640000 24.200000 54 55 54 0
16.060000 24.640000 24.200000 54 55 54 0
16.280000 24.640000 24.200000 55 56 55 0
16.500000 24.640000 24.200000 55 56 55 0
16.720000 24.640000 23.980000 55 56 55 0
16.940000 24.640000 23.980000 56 57 56 0
17.160000 24.640000 23.980000 56 57 56 0
17.380000 24.640000 23.980000 56 57 56 0
17.600000 24.640000 23.980000 56 57 56 0
17.820000 24.640000 23.980000 56 57 56 0
18.040000 24.640000 23.760000 56 57 56 0
18.260000 24.640000 23.760000 57 58 57 0
18.480000 24.640000 23.760000 57 58 57 0
18.700000 24.640000 23.760000 58 59 58 0
18.920000 24.640000 23.760000 58 59 58 0
19.140000 24.640000 23.760000 58 59 58 0
19.360000 24.640000 23.540000 58 59 58 0
19.580000 24.640000 23.540000 58 59 58 0
19.800000 24.640000 23.540000 58 59 58 0
20.020000 24.640000 23.540000 59 60 59 0
20.240000 24.640000 23.540000 59 60 59 0
20.460000 24.640000 23.540000 59 60 59 0
20.680000 24.640000 23.540000 59 60 59 0
20.900000 24.640000 23.540000 60 61 60 0
21.120000 24.640000 23.320000 59 60 59 0
21.340000 24.640000 23.320000 59 60 59 0
21.560000 24.640000 23.320000 59 60 59 0
21.780000 24.640000 23.320000 58 59 58 0
22.000000 24.640000 23.320000 58 59 58 0
22.220000 24.640000 23.320000 58 59 58 0
22.440000 24.640000 23.320000 60 61 60 0
22.660000 24.640000 23.320000 61 62 61 0
22.880000 24.640000 23.320000 61 62 61 0
23.100000 24.640000 23.320000 62 63 62 0
23.320000 24.640000 23.320000 62 63 62 0
23.540000 24.640000 23.100000 62 63 62 0
23.760000 24.640000 23.100000 62 63 62 0
23.980000 24.640000 23.100000 62 63 62 0
24.200000 24.640000 23.100000 63 64 63 0
24.420000 24.640000 23.100000 63 64 63 0
24.640000 24.640000 23.100000 63 64 63 0
24.860000 24.640000 23.100000 64 65 64 0
25.080000 24.640000 23.100000 63 64 63 0
25.300000 24.640000 23.320000 62 63 62 0
25.520000 24.640000 23.320000 61 62 61 0
25.740000 24.640000 23.320000 61 62 61 0
25.960000 24.640000 23.100000 63 64 63 0
26.180000 24.640000 22.660000 67 68 67 0
26.400000 24.640000 22.660000 72 73 72 0
26.620000 24.640000 22.440000 75 76 75 0
26.840000 24.640000 22.440000 78 79 78 0
27.060000 24.640000 22.440000 77 78 77 0
27.280000 24.640000 22.440000 74 75 74 0
27.500000 24.640000 22.440000 69 70 69 0
27.720000 24.640000 22.660000 67 68 67 0
27.940000 24.640000 22.660000 67 68 67 0
28.160000 24.640000 22.660000 69 70 69 0
28.380000 24.640000 22.880000 72 73 72 0
28.600000 24.640000 22.880000 76 77 76 0
28.820000 24.640000 22.880000 78 79 78 0
29.040000 24.640000 22.880000 79 80 79 0
29.260000 24.640000 23.100000 81 82 81 0
29.480000 24.640000 23.100000 83 84 83 0
29.700000 24.640000 23.100000 88 89 88 0
29.920000 24.640000 23.100000 94 95 94 0
30.140000 24.640000 22.880000 101 102 101 0
30.360000 24.640000 22.880000 105 106 105 0
30.580000 24.640000 22.660000 109 110 109 0
30.800000 24.640000 33.660000 111 112 111 0
31.020000 24.640000 33.440000 111 112 111 0
31.240000 24.640000 33.440000 112 113 112 0
31.460000 24.640000 33.440000 111 112 111 0
31.680000 24.640000 33.440000 109 110 109 0
31.900000 24.640000 33.440000 105 106 105 0
32.120000 24.640000 33.440000 97 98 97 0
32.340000 24.640000 33.440000 90 91 90 0
32.560000 24.640000 33.660000 83 84 83 0
32.780000 24.640000 33.660000 79 80 79 0
33.000000 24.640000 22.880000 73 74 73 0
33.220000 24.640000 22.880000 68 69 68 0
33.440000 24.640000 22.880000 67 68 67 0
33.660000 24.640000 23.100000 70 71 70 0
33.880000 24.640000 23.100000 77 78 77 0
34.100000 24.640000 23.320000 84 85 84 0
34.320000 24.640000 23.540000 92 93 92 0
34.540000 24.640000 24.200000 100 101 100 0
34.760000 24.640000 27.720000 107 108 107 0
34.980000 24.640000 28.380000 116 117 116 0
0.000000 24.860000 12.100000 7 8 7 0
0.220000 24.860000 12.100000 7 8 7 0
0.440000 24.860000 10.780000 7 8 7 0
0.660000 24.860000 21.780000 11 12 11 0
0.880000 24.860000 32.340000 25 26 25 0
1.100000 24.860000 31.900000 48 49 48 0
1.320000 24.860000 31.680000 65 66 65 0
1.540000 24.860000 31.460000 77 78 77 0
1.760000 24.860000 31.240000 83 84 83 0
1.980000 24.860000 31.020000 91 92 91 0
2.200000 24.860000 30.800000 97 98 97 0
2.420000 24.860000 30.580000 104 105 104 0
2.640000 24.860000 30.360000 110 111 110 0
2.860000 24.860000 30.140000 114 115 114 0
3.080000 24.860000 30.140000 118 119 118 0
3.300000 24.860000 29.920000 122 123 122 0
3.520000 24.860000 29.920000 126 127 126 0
3.740000 24.860000 29.700000 129 130 129 0
3.960000 24.860000 29.480000 131 132 131 0
4.180000 24.860000 29.260000 133 134 133 0
4.400000 24.860000 29.040000 134 135 134 0
4.620000 24.860000 28.820000 134 135 134 0
4.840000 24.860000 28.600000 135 136 135 0
5.060000 24.860000 28.380000 135 136 135 0
5.280000 24.860000 28.160000 135 136 135 0
5.500000 24.860000 27.940000 133 134 133 0
5.720000 24.860000 27.940000 131 132 131 0
5.940000 24.860000 27.720000 130 131 130 0
6.160000 24.860000 27.720000 127 128 127 0
6.380000 24.860000 27.500000 124 125 124 0
6.600000 24.860000 27.280000 120 121 120 0
6.820000 24.860000 27.060000 116 117 116 0
7.040000 24.860000 27.060000 110 111 110 0
7.260000 24.860000 26.840000 104 105 104 0
7.480000 24.860000 26.620000 98 99 98 0
7.700000 24.860000 26.400000 92 93 92 0
7.920000 24.860000 26.180000 87 88 87 0
8.140000 24.860000 26.180000 82 83 82 0
8.360000 24.860000 25.960000 76 77 76 0
8.580000 24.860000 25.740000 71 72 71 0
8.800000 24.860000 25.520000 66 67 66 0
9.020000 24.860000 25.300000 61 62 61 0
9.240000 24.860000 25.080000 57 58 57 0
9.460000 24.860000 25.080000 53 54 53 0
9.680000 24.860000 24.860000 50 51 50 0
9.900000 24.860000 24.640000 48 49 48 0
10.120000 24.860000 24.640000 46 47 46 0
10.340000 24.860000 24.420000 45 46 45 0
10.560000 24.860000 24.420000 46 47 46 0
10.780000 24.860000 24.200000 46 47 46 0
11.000000 24.860000 24.200000 47 48 47 0
11.220000 24.860000 23.980000 48 49 48 0
11.440000 24.860000 23.980000 49 50 49 0
11.660000 24.860000 23.760000 51 52 51 0
11.880000 24.860000 23.760000 51 52 51 0
12.100000 24.860000 23.760000 52 53 52 0
12.320000 24.860000 23.760000 51 52 51 0
12.540000 24.860000 23.760000 51 52 51 0
12.760000 24.860000 23.540000 51 52 51 0
12.980000 24.860000 23.540000 51 52 51 0
13.200000 24.860000 23.540000 51 52 51 0
13.420000 24.860000 23.540000 52 53 52 0
13.640000 24.860000 23.540000 53 54 53 0
13.860000 24.860000 23.320000 55 56 55 0
14.080000 24.860000 23.320000 54 55 54 0
14.300000 24.860000 23.320000 54 55 54 0
14.520000 24.860000 23.320000 54 55 54 0
14.740000 24.860000 23.320000 54 55 54 0
14.960000 24.860000 23.100000 55 56 55 0
15.180000 24.860000 23.100000 55 56 55 0
15.400000 24.860000 23.100000 57 58 57 0
15.620000 24.860000 23.100000 57 58 57 0
15.840000 24.860000 23.100000 57 58 57 0
16.060000 24.860000 22.880000 56 57 56 0
16.280000 24.860000 22.880000 57 58 57 0
16.500000 24.860000 22.880000 58 59 58 0
16.720000 24.860000 22.880000 58 59 58 0
16.940000 24.860000 22.880000 60 61 60 0
17.160000 24.860000 22.880000 59 60 59 0
17.380000 24.860000 22.880000 60 61 60 0
17.600000 24.860000 22.660000 60 61 60 0
17.820000 24.860000 22.660000 60 61 60 0
18.040000 24.860000 22.660000 60 61 60 0
18.260000 24.860000 22.660000 61 62 61 0
18.480000 24.860000 22.660000 61 62 61 0
18.700000 24.860000 22.660000 62 63 62 0
18.920000 24.860000 22.440000 62 63 62 0
19.140000 24.860000 22.440000 62 63 62 0
19.360000 24.860000 22.440000 63 64 63 0
19.580000 24.860000 22.440000 63 64 63 0
19.800000 24.860000 22.440000 63 64 63 0
20.020000 24.860000 22.440000 63 64 63 0
20.240000 24.860000 22.440000 64 65 64 0
20.460000 24.860000 22.440000 64 65 64 0
20.680000 24.860000 22.220000 65 66 65 0
20.900000 24.860000 22.220000 66 67 66 0
21.120000 24.860000 22.220000 65 66 65 0
21.340000 24.860000 22.220000 65 66 65 0
21.560000 24.860000 22.220000 66 67 66 0
21.780000 24.860000 22.220000 65 66 65 0
22.000000 24.860000 22.220000 64 65 64 0
22.220000 24.860000 22.220000 65 66 65 0
22.440000 24.860000 22.220000 66 67 66 0
22.660000 24.860000 22.220000 68 69 68 0
22.880000 24.860000 22.220000 68 69 68 0
23.100000 24.860000 22.000000 69 70 69 0
23.320000 24.860000 22.000000 69 70 69 0
23.540000 24.860000 22.000000 70 71 70 0
23.760000 24.860000 22.000000 70 71 70 0
23.980000 24.860000 22.000000 71 72 71 0
24.200000 24.860000 22.000000 71 72 71 0
24.420000 24.860000 22.000000 71 72 71 0
24.640000 24.860000 22.000000 72 73 72 0
24.860000 24.860000 22.000000 72 73 72 0
25.080000 24.860000 22.000000 73 74 73 0
25.300000 24.860000 22.000000 73 74 73 0
25.520000 24.860000 22.000000 69 70 69 0
25.740000 24.860000 22.000000 66 67 66 0
25.960000 24.860000 22.000000 65 66 65 0
26.180000 24.860000 21.560000 67 68 67 0
26.400000 24.860000 21.560000 69 70 69 0
26.620000 24.860000 21.340000 74 75 74 0
26.840000 24.860000 21.340000 75 76 75 0
27.060000 24.860000 21.340000 71 72 71 0
27.280000 24.860000 21.560000 66 67 66 0
27.500000 24.860000 21.560000 65 66 65 0
27.720000 24.860000 21.560000 67 68 67 0
27.940000 24.860000 21.560000 69 70 69 0
28.160000 24.860000 21.780000 73 74 73 0
28.380000 24.860000 21.780000 78 79 78 0
28.600000 24.860000 21.780000 83 84 83 0
28.820000 24.860000 21.780000 85 86 85 0
29.040000 24.860000 22.000000 86 87 86 0
29.260000 24.860000 22.000000 88 89 88 0
29.480000 24.860000 22.000000 90 91 90 0
29.700000 24.860000 22.000000 95 96 95 0
29.920000 24.860000 21.780000 102 103 102 0
30.140000 24.860000 21.780000 109 110 109 0
30.360000 24.860000 32.780000 112 113 112 0
30.580000 24.860000 32.560000 115 116 115 0
30.800000 24.860000 32.560000 116 117 116 0
31.020000 24.860000 32.560000 117 118 117 0
31.240000 24.860000 32.560000 120 121 120 0
31.460000 24.860000 32.560000 121 122 121 0
31.680000 24.860000 32.560000 118 119 118 0
31.900000 24.860000 32.560000 112 113 112 0
32.120000 24.860000 32.560000 105 106 105 0
32.340000 24.860000 32.780000 99 100 99 0
32.560000 24.860000 32.780000 92 93 92 0
32.780000 24.860000 32.780000 85 86 85 0
33.000000 24.860000 21.780000 79 80 79 0
33.220000 24.860000 21.780000 75 76 75 0
33.440000 24.860000 22.000000 76 77 76 0
33.660000 24.860000 22.000000 81 82 81 0
33.880000 24.860000 22.000000 88 89 88 0
34.100000 24.860000 22.220000 95 96 95 0
34.320000 24.860000 22.440000 101 102 101 0
34.540000 24.860000 25.740000 107 108 107 0
34.760000 24.860000 27.500000 113 114 113 0
34.980000 24.860000 27.720000 119 120 119 0
0.000000 25.080000 11.000000 8 9 8 0
0.220000 25.080000 23.540000 9 10 9 0
0.440000 25.080000 23.320000 8 9 8 0
0.660000 25.080000 21.780000 9 10 9 0
0.880000 25.080000 20.240000 18 19 18 0
1.100000 25.080000 31.020000 48 49 48 0
1.320000 25.080000 30.580000 75 76 75 0
1.540000 25.080000 30.360000 90 91 90 0
1.760000 25.080000 30.140000 100 101 100 0
1.980000 25.080000 29.920000 106 107 106 0
2.200000 25.080000 29.700000 110 111 110 0
2.420000 25.080000 29.480000 116 117 116 0
2.640000 25.080000 29.480000 122 123 122 0
2.860000 25.080000 29.260000 124 125 124 0
3.080000 25.080000 29.040000 126 127 126 0
3.300000 25.080000 28.820000 129 130 129 0
3.520000 25.080000 28.820000 131 132 131 0
3.740000 25.080000 28.380000 132 133 132 0
3.960000 25.080000 28.380000 133 134 133 0
4.180000 25.080000 28.160000 133 134 133 0
4.400000 25.080000 27.940000 132 133 132 0
4.620000 25.080000 27.720000 132 133 132 0
4.840000 25.080000 27.500000 130 131 130 0
5.060000 25.080000 27.280000 129 130 129 0
5.280000 25.080000 27.060000 126 127 126 0
5.500000 25.080000 27.060000 123 124 123 0
5.720000 25.080000 26.840000 121 122 121 0
5.940000 25.080000 26.620000 116 117 116 0
6.160000 25.080000 26.620000 112 113 112 0
6.380000 25.080000 26.400000 108 109 108 0
6.600000 25.080000 26.180000 102 103 102 0
6.820000 25.080000 26.180000 97 98 97 0
7.040000 25.080000 25.960000 90 91 90 0
7.260000 25.080000 25.740000 84 85 84 0
7.480000 25.080000 25.520000 79 80 79 0
7.700000 25.080000 25.300000 72 73 72 0
7.920000 25.080000 25.080000 68 69 68 0
8.140000 25.080000 24.860000 63 64 63 0
8.360000 25.080000 24.640000 59 60 59 0
8.580000 25.080000 24.640000 54 55 54 0
8.800000 25.080000 24.420000 51 52 51 0
9.020000 25.080000 24.200000 47 48 47 0
9.240000 25.080000 23.980000 45 46 45 0
9.460000 25.080000 23.980000 43 44 43 0
9.680000 25.080000 23.760000 41 42 41 0
9.900000 25.080000 23.540000 41 42 41 0
10.120000 25.080000 23.540000 42 43 42 0
10.340000 25.080000 23.320000 42 43 42 0
10.560000 25.080000 23.100000 43 44 43 0
10.780000 25.080000 23.100000 46 47 46 0
11.000000 25.080000 22.880000 48 49 48 0
11.220000 25.080000 22.880000 49 50 49 0
11.440000 25.080000 22.660000 50 51 50 0
11.660000 25.080000 22.660000 51 52 51 0
11.880000 25.080000 22.660000 52 53 52 0
12.100000 25.080000 22.660000 52 53 52 0
12.320000 25.080000 22.440000 52 53 52 0
12.540000 25.080000 22.440000 53 54 53 0
12.760000 25.080000 22.440000 54 55 54 0
12.980000 25.080000 22.440000 52 53 52 0
13.200000 25.080000 22.220000 53 54 53 0
13.420000 25.080000 22.220000 54 55 54 0
13.640000 25.080000 22.220000 55 56 55 0
13.860000 25.080000 22.220000 56 57 56 0
14.080000 25.080000 22.220000 57 58 57 0
14.300000 25.080000 22.000000 58 59 58 0
14.520000 25.080000 22.000000 58 59 58 0
14.740000 25.080000 22.000000 58 59 58 0
14.960000 25.080000 22.000000 59 60 59 0
15.180000 25.080000 22.000000 60 61 60 0
15.400000 25.080000 22.000000 61 62 61 0
15.620000 25.080000 21.780000 61 62 61 0
15.840000 25.080000 21.780000 62 63 62 0
16.060000 25.080000 21.780000 62 63 62 0
16.280000 25.080000 21.780000 63 64 63 0
16.500000 25.080000 21.780000 64 65 64 0
16.720000 25.080000 21.780000 65 66 65 0
16.940000 25.080000 21.560000 65 66 65 0
17.160000 25.080000 21.560000 64 65 64 0
17.380000 25.080000 21.560000 65 66 65 0
17.600000 25.080000 21.560000 66 67 66 0
17.820000 25.080000 21.560000 66 67 66 0
18.040000 25.080000 21.560000 67 68 67 0
18.260000 25.080000 21.560000 68 69 68 0
18.480000 25.080000 21.560000 68 69 68 0
18.700000 25.080000 21.340000 69 70 69 0
18.920000 25.080000 21.340000 69 70 69 0
19.140000 25.080000 21.340000 70 71 70 0
19.360000 25.080000 21.340000 71 72 71 0
19.580000 25.080000 21.340000 71 72 71 0
19.800000 25.080000 21.340000 72 73 72 0
20.020000 25.080000 21.340000 72 73 72 0
20.240000 25.080000 21.340000 73 74 73 0
20.460000 25.080000 21.340000 73 74 73 0
20.680000 25.080000 21.120000 74 75 74 0
20.900000 25.080000 21.120000 74 75 74 0
21.120000 25.080000 21.120000 74 75 74 0
21.340000 25.080000 21.120000 75 76 75 0
21.560000 25.080000 21.120000 76 77 76 0
21.780000 25.080000 21.120000 76 77 76 0
22.000000 25.080000 21.120000 75 76 75 0
22.220000 25.080000 21.120000 75 76 75 0
22.440000 25.080000 21.120000 77 78 77 0
22.660000 25.080000 21.120000 78 79 78 0
22.880000 25.080000 21.120000 79 80 79 0
23.100000 25.080000 21.120000 80 81 80 0
23.320000 25.080000 21.120000 80 81 80 0
23.540000 25.080000 21.120000 81 82 81 0
23.760000 25.080000 20.900000 81 82 81 0
23.980000 25.080000 32.340000 83 84 83 0
24.200000 25.080000 32.120000 83 84 83 0
24.420000 25.080000 20.900000 84 85 84 0
24.640000 25.080000 20.900000 84 85 84 0
24.860000 25.080000 20.900000 84 85 84 0
25.080000 25.080000 20.900000 85 86 85 0
25.300000 25.080000 20.900000 86 87 86 0
25.520000 25.080000 20.900000 83 84 83 0
25.740000 25.080000 20.900000 78 79 78 0
25.960000 25.080000 20.680000 73 74 73 0
26.180000 25.080000 20.460000 69 70 69 0
26.400000 25.080000 20.460000 65 66 65 0
26.620000 25.080000 20.460000 65 66 65 0
26.840000 25.080000 20.460000 64 65 64 0
27.060000 25.080000 20.460000 60 61 60 0
27.280000 25.080000 20.460000 56 57 56 0
27.500000 25.080000 20.680000 57 58 57 0
27.720000 25.080000 20.680000 65 66 65 0
27.940000 25.080000 20.680000 76 77 76 0
28.160000 25.080000 20.680000 84 85 84 0
28.380000 25.080000 20.680000 89 90 89 0
28.600000 25.080000 20.680000 93 94 93 0
28.820000 25.080000 20.900000 95 96 95 0
29.040000 25.080000 20.900000 96 97 96 0
29.260000 25.080000 20.900000 99 100 99 0
29.480000 25.080000 20.900000 103 104 103 0
29.700000 25.080000 20.680000 106 107 106 0
29.920000 25.080000 20.680000 113 114 113 0
30.140000 25.080000 31.900000 118 119 118 0
30.360000 25.080000 31.680000 120 121 120 0
30.580000 25.080000 31.680000 123 124 123 0
30.800000 25.080000 31.680000 126 127 126 0
31.020000 25.080000 31.460000 128 129 128 0
31.240000 25.080000 31.460000 131 132 131 0
31.460000 25.080000 31.460000 131 132 131 0
31.680000 25.080000 31.680000 128 129 128 0
31.900000 25.080000 31.680000 123 124 123 0
32.120000 25.080000 31.680000 115 116 115 0
32.340000 25.080000 31.900000 110 111 110 0
32.560000 25.080000 31.900000 102 103 102 0
32.780000 25.080000 20.680000 92 93 92 0
33.000000 25.080000 20.680000 86 87 86 0
33.220000 25.080000 20.900000 84 85 84 0
33.440000 25.080000 20.900000 87 88 87 0
33.660000 25.080000 20.900000 92 93 92 0
33.880000 25.080000 21.120000 98 99 98 0
34.100000 25.080000 21.120000 104 105 104 0
34.320000 25.080000 21.340000 108 109 108 0
34.540000 25.080000 26.620000 112 113 112 0
34.760000 25.080000 26.840000 116 117 116 0
34.980000 25.080000 26.840000 119 120 119 0
0.000000 25.300000 9.460000 9 10 9 0
0.220000 25.300000 22.660000 11 12 11 0
0.440000 25.300000 22.440000 11 12 11 0
0.660000 25.300000 21.780000 10 11 10 0
0.880000 25.300000 20.240000 13 14 13 0
1.100000 25.300000 18.480000 32 33 32 0
1.320000 25.300000 29.480000 71 72 71 0
1.540000 25.300000 29.260000 96 97 96 0
1.760000 25.300000 29.040000 108 109 108 0
1.980000 25.300000 28.820000 115 116 115 0
2.200000 25.300000 28.820000 120 121 120 0
2.420000 25.300000 28.600000 124 125 124 0
2.640000 25.300000 28.380000 127 128 127 0
2.860000 25.300000 28.160000 129 130 129 0
3.080000 25.300000 27.940000 129 130 129 0
3.300000 25.300000 27.720000 131 132 131 0
3.520000 25.300000 27.500000 131 132 131 0
3.740000 25.300000 27.280000 131 132 131 0
3.960000 25.300000 27.060000 130 131 130 0
4.180000 25.300000 26.840000 129 130 129 0
4.400000 25.300000 26.840000 127 128 127 0
4.620000 25.300000 26.620000 123 124 123 0
4.840000 25.300000 26.400000 121 122 121 0
5.060000 25.300000 26.400000 118 119 118 0
5.280000 25.300000 26.180000 113 114 113 0
5.500000 25.300000 25.960000 109 110 109 0
5.720000 25.300000 25.740000 104 105 104 0
5.940000 25.300000 25.740000 99 100 99 0
6.160000 25.300000 25.520000 93 94 93 0
6.380000 25.300000 25.300000 88 89 88 0
6.600000 25.300000 25.080000 82 83 82 0
6.820000 25.300000 24.860000 77 78 77 0
7.040000 25.300000 24.640000 71 72 71 0
7.260000 25.300000 24.420000 65 66 65 0
7.480000 25.300000 24.200000 61 62 61 0
7.700000 25.300000 23.980000 57 58 57 0
7.920000 25.300000 23.980000 53 54 53 0
8.140000 25.300000 23.760000 49 50 49 0
8.360000 25.300000 23.540000 45 46 45 0
8.580000 25.300000 23.320000 42 43 42 0
8.800000 25.300000 23.320000 40 41 40 0
9.020000 25.300000 23.100000 39 40 39 0
9.240000 25.300000 22.880000 39 40 39 0
9.460000 25.300000 22.660000 38 39 38 0
9.680000 25.300000 22.660000 38 39 38 0
9.900000 25.300000 22.440000 40 41 40 0
10.120000 25.300000 22.220000 42 43 42 0
10.340000 25.300000 22.000000 44 45 44 0
10.560000 25.300000 22.000000 46 47 46 0
10.780000 25.300000 21.780000 48 49 48 0
11.000000 25.300000 21.780000 50 51 50 0
11.220000 25.300000 21.560000 53 54 53 0
11.440000 25.300000 21.560000 54 55 54 0
11.660000 25.300000 21.560000 55 56 55 0
11.880000 25.300000 21.340000 55 56 55 0
12.100000 25.300000 21.340000 56 57 56 0
12.320000 25.300000 21.340000 56 57 56 0
12.540000 25.300000 21.340000 56 57 56 0
12.760000 25.300000 21.340000 57 58 57 0
12.980000 25.300000 21.120000 57 58 57 0
13.200000 25.300000 21.120000 57 58 57 0
13.420000 25.300000 21.120000 59 60 59 0
13.640000 25.300000 21.120000 60 61 60 0
13.860000 25.300000 20.900000 62 63 62 0
14.080000 25.300000 20.900000 63 64 63 0
14.300000 25.300000 20.900000 64 65 64 0
14.520000 25.300000 20.900000 64 65 64 0
14.740000 25.300000 20.900000 64 65 64 0
14.960000 25.300000 20.900000 65 66 65 0
15.180000 25.300000 20.900000 65 66 65 0
15.400000 25.300000 20.680000 67 68 67 0
15.620000 25.300000 20.680000 69 70 69 0
15.840000 25.300000 20.680000 70 71 70 0
16.060000 25.300000 20.680000 70 71 70 0
16.280000 25.300000 20.680000 71 72 71 0
16.500000 25.300000 20.680000 72 73 72 0
16.720000 25.300000 20.680000 73 74 73 0
16.940000 25.300000 20.460000 74 75 74 0
17.160000 25.300000 20.460000 74 75 74 0
17.380000 25.300000 20.460000 75 76 75 0
17.600000 25.300000 20.460000 76 77 76 0
17.820000 25.300000 20.460000 76 77 76 0
18.040000 25.300000 20.460000 78 79 78 0
18.260000 25.300000 20.460000 79 80 79 0
18.480000 25.300000 20.460000 79 80 79 0
18.700000 25.300000 20.240000 80 81 80 0
18.920000 25.300000 20.240000 81 82 81 0
19.140000 25.300000 20.240000 81 82 81 0
19.360000 25.300000 20.240000 83 84 83 0
19.580000 25.300000 20.240000 83 84 83 0
19.800000 25.300000 20.240000 83 84 83 0
20.020000 25.300000 20.240000 84 85 84 0
20.240000 25.300000 31.680000 85 86 85 0
20.460000 25.300000 20.240000 85 86 85 0
20.680000 25.300000 20.240000 86 87 86 0
20.900000 25.300000 20.240000 87 88 87 0
21.120000 25.300000 20.020000 87 88 87 0
21.340000 25.300000 31.460000 88 89 88 0
21.560000 25.300000 31.460000 89 90 89 0
21.780000 25.300000 20.020000 89 90 89 0
22.000000 25.300000 20.020000 89 90 89 0
22.220000 25.300000 20.020000 89 90 89 0
22.440000 25.300000 20.020000 91 92 91 0
22.660000 25.300000 20.020000 92 93 92 0
22.880000 25.300000 31.460000 92 93 92 0
23.100000 25.300000 31.460000 93 94 93 0
23.320000 25.300000 31.460000 94 95 94 0
23.540000 25.300000 31.240000 94 95 94 0
23.760000 25.300000 31.240000 94 95 94 0
23.980000 25.300000 31.240000 95 96 95 0
24.200000 25.300000 31.240000 97 98 97 0
24.420000 25.300000 31.240000 97 98 97 0
24.640000 25.300000 31.240000 97 98 97 0
24.860000 25.300000 19.800000 97 98 97 0
25.080000 25.300000 19.800000 97 98 97 0
25.300000 25.300000 19.800000 97 98 97 0
25.520000 25.300000 19.800000 96 97 96 0
25.740000 25.300000 19.580000 94 95 94 0
25.960000 25.300000 19.580000 88 89 88 0
26.180000 25.300000 19.360000 79 80 79 0
26.400000 25.300000 19.360000 66 67 66 0
26.620000 25.300000 19.360000 56 57 56 0
26.840000 25.300000 19.580000 55 56 55 0
27.060000 25.300000 19.580000 54 55 54 0
27.280000 25.300000 19.580000 53 54 53 0
27.500000 25.300000 19.580000 56 57 56 0
27.720000 25.300000 19.580000 70 71 70 0
27.940000 25.300000 19.580000 84 85 84 0
28.160000 25.300000 19.580000 96 97 96 0
28.380000 25.300000 19.580000 103 104 103 0
28.600000 25.300000 19.580000 106 107 106 0
28.820000 25.300000 19.580000 110 111 110 0
29.040000 25.300000 19.800000 111 112 111 0
29.260000 25.300000 19.800000 112 113 112 0
29.480000 25.300000 19.580000 114 115 114 0
29.700000 25.300000 19.580000 117 118 117 0
29.920000 25.300000 30.800000 121 122 121 0
30.140000 25.300000 30.800000 124 125 124 0
30.360000 25.300000 30.800000 126 127 126 0
30.580000 25.300000 30.580000 131 132 131 0
30.800000 25.300000 30.580000 137 138 137 0
31.020000 25.300000 30.360000 140 141 140 0
31.240000 25.300000 30.580000 142 143 142 0
31.460000 25.300000 30.580000 143 144 143 0
31.680000 25.300000 30.580000 139 140 139 0
31.900000 25.300000 30.800000 135 136 135 0
32.120000 25.300000 30.800000 129 130 129 0
32.340000 25.300000 30.800000 121 122 121 0
32.560000 25.300000 31.020000 112 113 112 0
32.780000 25.300000 19.580000 101 102 101 0
33.000000 25.300000 19.580000 95 96 95 0
33.220000 25.300000 19.800000 94 95 94 0
33.440000 25.300000 19.800000 98 99 98 0
33.660000 25.300000 19.800000 102 103 102 0
33.880000 25.300000 20.020000 107 108 107 0
34.100000 25.300000 20.020000 110 111 110 0
34.320000 25.300000 26.180000 112 113 112 0
34.540000 25.300000 25.960000 114 115 114 0
34.760000 25.300000 25.960000 115 116 115 0
34.980000 25.300000 25.960000 117 118 117 0
0.000000 25.520000 21.120000 10 11 10 0
0.220000 25.520000 21.340000 12 13 12 0
0.440000 25.520000 21.120000 13 14 13 0
0.660000 25.520000 20.900000 13 14 13 0
0.880000 25.520000 20.240000 13 14 13 0
1.100000 25.520000 18.480000 20 21 20 0
1.320000 25.520000 16.940000 50 51 50 0
1.540000 25.520000 28.380000 87 88 87 0
1.760000 25.520000 28.160000 108 109 108 0
1.980000 25.520000 27.940000 119 120 119 0
2.200000 25.520000 27.500000 125 126 125 0
2.420000 25.520000 27.500000 128 129 128 0
2.640000 25.520000 27.280000 128 129 128 0
2.860000 25.520000 27.060000 128 129 128 0
3.080000 25.520000 26.620000 128 129 128 0
3.300000 25.520000 26.620000 128 129 128 0
3.520000 25.520000 26.400000 127 128 127 0
3.740000 25.520000 26.180000 124 125 124 0
3.960000 25.520000 25.960000 123 124 123 0
4.180000 25.520000 25.740000 119 120 119 0
4.400000 25.520000 25.740000 116 117 116 0
4.620000 25.520000 25.520000 112 113 112 0
4.840000 25.520000 25.300000 107 108 107 0
5.060000 25.520000 25.300000 102 103 102 0
5.280000 25.520000 25.080000 96 97 96 0
5.500000 25.520000 24.860000 90 91 90 0
5.720000 25.520000 24.640000 85 86 85 0
5.940000 25.520000 24.420000 80 81 80 0
6.160000 25.520000 24.200000 74 75 74 0
6.380000 25.520000 23.980000 68 69 68 0
6.600000 25.520000 23.760000 63 64 63 0
6.820000 25.520000 23.540000 59 60 59 0
7.040000 25.520000 23.540000 54 55 54 0
7.260000 25.520000 23.320000 49 50 49 0
7.480000 25.520000 23.100000 46 47 46 0
7.700000 25.520000 22.880000 43 44 43 0
7.920000 25.520000 22.880000 42 43 42 0
8.140000 25.520000 22.660000 39 40 39 0
8.360000 25.520000 22.440000 38 39 38 0
8.580000 25.520000 22.220000 36 37 36 0
8.800000 25.520000 22.000000 36 37 36 0
9.020000 25.520000 22.000000 36 37 36 0
9.240000 25.520000 21.780000 37 38 37 0
9.460000 25.520000 21.560000 39 40 39 0
9.680000 25.520000 21.340000 41 42 41 0
9.900000 25.520000 21.120000 43 44 43 0
10.120000 25.520000 20.900000 46 47 46 0
10.340000 25.520000 20.680000 49 50 49 0
10.560000 25.520000 20.680000 52 53 52 0
10.780000 25.520000 20.460000 56 57 56 0
11.000000 25.520000 20.460000 58 59 58 0
11.220000 25.520000 20.460000 59 60 59 0
11.440000 25.520000 20.240000 60 61 60 0
11.660000 25.520000 20.240000 61 62 61 0
11.880000 25.520000 20.240000 62 63 62 0
12.100000 25.520000 20.240000 63 64 63 0
12.320000 25.520000 20.240000 63 64 63 0
12.540000 25.520000 20.020000 64 65 64 0
12.760000 25.520000 20.020000 64 65 64 0
12.980000 25.520000 20.020000 64 65 64 0
13.200000 25.520000 20.020000 65 66 65 0
13.420000 25.520000 20.020000 67 68 67 0
13.640000 25.520000 20.020000 69 70 69 0
13.860000 25.520000 19.800000 70 71 70 0
14.080000 25.520000 19.800000 71 72 71 0
14.300000 25.520000 19.800000 73 74 73 0
14.520000 25.520000 19.800000 74 75 74 0
14.740000 25.520000 19.800000 74 75 74 0
14.960000 25.520000 19.800000 74 75 74 0
15.180000 25.520000 19.580000 73 74 73 0
15.400000 25.520000 19.580000 75 76 75 0
15.620000 25.520000 19.580000 79 80 79 0
15.840000 25.520000 19.580000 80 81 80 0
16.060000 25.520000 19.580000 81 82 81 0
16.280000 25.520000 19.580000 83 84 83 0
16.500000 25.520000 19.580000 84 85 84 0
16.720000 25.520000 19.360000 84 85 84 0
16.940000 25.520000 19.360000 85 86 85 0
17.160000 25.520000 19.360000 86 87 86 0
17.380000 25.520000 19.360000 87 88 87 0
17.600000 25.520000 19.360000 89 90 89 0
17.820000 25.520000 19.360000 89 90 89 0
18.040000 25.520000 19.360000 90 91 90 0
18.260000 25.520000 19.360000 92 93 92 0
18.480000 25.520000 19.140000 92 93 92 0
18.700000 25.520000 19.140000 93 94 93 0
18.920000 25.520000 30.800000 94 95 94 0
19.140000 25.520000 30.800000 96 97 96 0
19.360000 25.520000 30.800000 97 98 97 0
19.580000 25.520000 30.580000 97 98 97 0
19.800000 25.520000 30.580000 97 98 97 0
20.020000 25.520000 30.580000 99 100 99 0
20.240000 25.520000 30.580000 100 101 100 0
20.460000 25.520000 30.580000 100 101 100 0
20.680000 25.520000 30.580000 101 102 101 0
20.900000 25.520000 30.580000 102 103 102 0
21.120000 25.520000 30.580000 102 103 102 0
21.340000 25.520000 30.580000 104 105 104 0
21.560000 25.520000 30.580000 104 105 104 0
21.780000 25.520000 30.580000 105 106 105 0
22.000000 25.520000 30.360000 106 107 106 0
22.220000 25.520000 30.360000 106 107 106 0
22.440000 25.520000 30.360000 107 108 107 0
22.660000 25.520000 30.360000 107 108 107 0
22.880000 25.520000 30.360000 108 109 108 0
23.100000 25.520000 30.360000 108 109 108 0
23.320000 25.520000 30.360000 109 110 109 0
23.540000 25.520000 30.360000 111 112 111 0
23.760000 25.520000 30.360000 110 111 110 0
23.980000 25.520000 30.360000 111 112 111 0
24.200000 25.520000 30.360000 113 114 113 0
24.420000 25.520000 30.360000 114 115 114 0
24.640000 25.520000 30.140000 114 115 114 0
24.860000 25.520000 30.140000 114 115 114 0
25.080000 25.520000 30.140000 113 114 113 0
25.300000 25.520000 18.480000 112 113 112 0
25.520000 25.520000 18.480000 111 112 111 0
25.740000 25.520000 18.480000 110 111 110 0
25.960000 25.520000 18.260000 108 109 108 0
26.180000 25.520000 18.260000 98 99 98 0
26.400000 25.520000 18.260000 84 85 84 0
26.620000 25.520000 18.260000 69 70 69 0
26.840000 25.520000 18.480000 66 67 66 0
27.060000 25.520000 18.700000 71 72 71 0
27.280000 25.520000 18.700000 73 74 73 0
27.500000 25.520000 18.700000 73 74 73 0
27.720000 25.520000 18.480000 80 81 80 0
27.940000 25.520000 18.260000 90 91 90 0
28.160000 25.520000 18.480000 102 103 102 0
28.380000 25.520000 18.480000 113 114 113 0
28.600000 25.520000 18.480000 119 120 119 0
28.820000 25.520000 18.480000 122 123 122 0
29.040000 25.520000 18.480000 123 124 123 0
29.260000 25.520000 18.480000 124 125 124 0
29.480000 25.520000 18.260000 124 125 124 0
29.700000 25.520000 18.260000 126 127 126 0
29.920000 25.520000 18.040000 129 130 129 0
30.140000 25.520000 29.700000 131 132 131 0
30.360000 25.520000 29.700000 134 135 134 0
30.580000 25.520000 29.480000 139 140 139 0
30.800000 25.520000 29.480000 146 147 146 0
31.020000 25.520000 29.480000 151 152 151 0
31.240000 25.520000 29.480000 156 157 156 0
31.460000 25.520000 29.480000 156 157 156 0
31.680000 25.520000 29.700000 154 155 154 0
31.900000 25.520000 29.700000 150 151 150 0
32.120000 25.520000 29.700000 143 144 143 0
32.340000 25.520000 29.920000 134 135 134 0
32.560000 25.520000 18.260000 120 121 120 0
32.780000 25.520000 18.480000 110 111 110 0
33.000000 25.520000 18.480000 105 106 105 0
33.220000 25.520000 18.480000 105 106 105 0
33.440000 25.520000 18.700000 108 109 108 0
33.660000 25.520000 18.700000 110 111 110 0
33.880000 25.520000 18.700000 112 113 112 0
34.100000 25.520000 18.700000 113 114 113 0
34.320000 25.520000 24.860000 114 115 114 0
34.540000 25.520000 24.860000 113 114 113 0
34.760000 25.520000 24.860000 111 112 111 0
34.980000 25.520000 24.860000 111 112 111 0
0.000000 25.740000 19.800000 11 12 11 0
0.220000 25.740000 20.020000 14 15 14 0
0.440000 25.740000 20.020000 16 17 16 0
0.660000 25.740000 19.800000 17 18 17 0
0.880000 25.740000 19.580000 17 18 17 0
1.100000 25.740000 18.480000 18 19 18 0
1.320000 25.740000 16.720000 26 27 26 0
1.540000 25.740000 15.620000 58 59 58 0
1.760000 25.740000 27.060000 94 95 94 0
1.980000 25.740000 26.620000 112 113 112 0
2.200000 25.740000 26.400000 122 123 122 0
2.420000 25.740000 26.180000 126 127 126 0
2.640000 25.740000 25.960000 124 125 124 0
2.860000 25.740000 25.740000 123 124 123 0
3.080000 25.740000 25.520000 122 123 122 0
3.300000 25.740000 25.300000 120 121 120 0
3.520000 25.740000 25.300000 116 117 116 0
3.740000 25.740000 25.080000 113 114 113 0
3.960000 25.740000 24.860000 109 110 109 0
4.180000 25.740000 24.640000 105 106 105 0
4.400000 25.740000 24.640000 100 101 100 0
4.620000 25.740000 24.420000 95 96 95 0
4.840000 25.740000 24.200000 89 90 89 0
5.060000 25.740000 23.980000 83 84 83 0
5.280000 25.740000 23.760000 77 78 77 0
5.500000 25.740000 23.540000 72 73 72 0
5.720000 25.740000 23.320000 66 67 66 0
5.940000 25.740000 23.100000 60 61 60 0
6.160000 25.740000 22.880000 55 56 55 0
6.380000 25.740000 22.880000 51 52 51 0
6.600000 25.740000 22.660000 48 49 48 0
6.820000 25.740000 22.440000 44 45 44 0
7.040000 25.740000 22.220000 41 42 41 0
7.260000 25.740000 22.000000 39 40 39 0
7.480000 25.740000 22.000000 37 38 37 0
7.700000 25.740000 21.780000 36 37 36 0
7.920000 25.740000 21.560000 35 36 35 0
8.140000 25.740000 21.340000 35 36 35 0
8.360000 25.740000 21.120000 35 36 35 0
8.580000 25.740000 20.900000 36 37 36 0
8.800000 25.740000 20.680000 36 37 36 0
9.020000 25.740000 20.460000 37 38 37 0
9.240000 25.740000 20.240000 39 40 39 0
9.460000 25.740000 20.020000 43 44 43 0
9.680000 25.740000 20.020000 47 48 47 0
9.900000 25.740000 19.800000 50 51 50 0
10.120000 25.740000 19.580000 53 54 53 0
10.340000 25.740000 19.580000 58 59 58 0
10.560000 25.740000 19.360000 61 62 61 0
10.780000 25.740000 19.360000 64 65 64 0
11.000000 25.740000 19.360000 66 67 66 0
11.220000 25.740000 19.140000 67 68 67 0
11.440000 25.740000 19.140000 70 71 70 0
11.660000 25.740000 19.140000 71 72 71 0
11.880000 25.740000 19.140000 71 72 71 0
12.100000 25.740000 19.140000 72 73 72 0
12.320000 25.740000 18.920000 73 74 73 0
12.540000 25.740000 18.920000 74 75 74 0
12.760000 25.740000 18.920000 74 75 74 0
12.980000 25.740000 18.920000 76 77 76 0
13.200000 25.740000 18.920000 77 78 77 0
13.420000 25.740000 18.700000 79 80 79 0
13.640000 25.740000 18.700000 81 82 81 0
13.860000 25.740000 18.700000 82 83 82 0
14.080000 25.740000 18.700000 83 84 83 0
14.300000 25.740000 18.700000 85 86 85 0
14.520000 25.740000 18.700000 86 87 86 0
14.740000 25.740000 18.700000 86 87 86 0
14.960000 25.740000 18.480000 86 87 86 0
15.180000 25.740000 18.480000 86 87 86 0
15.400000 25.740000 18.480000 88 89 88 0
15.620000 25.740000 18.480000 92 93 92 0
15.840000 25.740000 18.480000 93 94 93 0
16.060000 25.740000 18.480000 94 95 94 0
16.280000 25.740000 18.260000 95 96 95 0
16.500000 25.740000 18.260000 97 98 97 0
16.720000 25.740000 18.260000 98 99 98 0
16.940000 25.740000 18.260000 100 101 100 0
17.160000 25.740000 18.260000 101 102 101 0
17.380000 25.740000 18.260000 102 103 102 0
17.600000 25.740000 29.920000 103 104 103 0
17.820000 25.740000 29.920000 105 106 105 0
18.040000 25.740000 18.040000 107 108 107 0
18.260000 25.740000 29.920000 108 109 108 0
18.480000 25.740000 29.700000 109 110 109 0
18.700000 25.740000 29.700000 110 111 110 0
18.920000 25.740000 29.700000 111 112 111 0
19.140000 25.740000 29.700000 113 114 113 0
19.360000 25.740000 29.700000 113 114 113 0
19.580000 25.740000 29.700000 114 115 114 0
19.800000 25.740000 29.700000 115 116 115 0
20.020000 25.740000 29.700000 116 117 116 0
20.240000 25.740000 29.700000 117 118 117 0
20.460000 25.740000 29.480000 118 119 118 0
20.680000 25.740000 29.480000 119 120 119 0
20.900000 25.740000 29.480000 120 121 120 0
21.120000 25.740000 29.480000 120 121 120 0
21.340000 25.740000 29.480000 122 123 122 0
21.560000 25.740000 29.480000 124 125 124 0
21.780000 25.740000 29.480000 124 125 124 0
22.000000 25.740000 29.480000 125 126 125 0
22.220000 25.740000 29.260000 126 127 126 0
22.440000 25.740000 29.260000 126 127 126 0
22.660000 25.740000 29.260000 126 127 126 0
22.880000 25.740000 29.260000 127 128 127 0
23.100000 25.740000 29.260000 127 128 127 0
23.320000 25.740000 29.260000 129 130 129 0
23.540000 25.740000 29.260000 130 131 130 0
23.760000 25.740000 29.260000 130 131 130 0
23.980000 25.740000 29.260000 130 131 130 0
24.200000 25.740000 29.260000 131 132 131 0
24.420000 25.740000 29.260000 131 132 131 0
24.640000 25.740000 29.260000 133 134 133 0
24.860000 25.740000 29.040000 134 135 134 0
25.080000 25.740000 29.040000 132 133 132 0
25.300000 25.740000 17.160000 130 131 130 0
25.520000 25.740000 17.160000 130 131 130 0
25.740000 25.740000 17.160000 128 129 128 0
25.960000 25.740000 17.160000 126 127 126 0
26.180000 25.740000 17.160000 120 121 120 0
26.400000 25.740000 16.940000 110 111 110 0
26.620000 25.740000 17.160000 103 104 103 0
26.840000 25.740000 17.380000 103 104 103 0
27.060000 25.740000 17.600000 103 104 103 0
27.280000 25.740000 17.600000 101 102 101 0
27.500000 25.740000 17.600000 97 98 97 0
27.720000 25.740000 17.380000 91 92 91 0
27.940000 25.740000 17.160000 91 92 91 0
28.160000 25.740000 17.160000 100 101 100 0
28.380000 25.740000 17.160000 111 112 111 0
28.600000 25.740000 17.380000 120 121 120 0
28.820000 25.740000 17.380000 127 128 127 0
29.040000 25.740000 17.380000 131 132 131 0
29.260000 25.740000 17.160000 134 135 134 0
29.480000 25.740000 16.940000 133 134 133 0
29.700000 25.740000 16.720000 133 134 133 0
29.920000 25.740000 16.720000 134 135 134 0
30.140000 25.740000 16.720000 138 139 138 0
30.360000 25.740000 28.600000 141 142 141 0
