ply
format ascii 1.0
element vertex 1180
property float x
property float y
property float z
property uchar red
property uchar green
property uchar blue
property uchar alpha
end_header
4.282424 -0.961360 35.672000 96 97 96 0
4.345810 -0.956078 35.476000 94 95 94 0
4.432726 -0.956078 35.476000 93 94 93 0
4.544613 -0.961360 35.672000 92 93 92 0
4.632009 -0.961360 35.672000 90 91 90 0
4.719406 -0.961360 35.672000 90 91 90 0
4.806802 -0.961360 35.672000 89 90 89 0
4.894198 -0.961360 35.672000 85 86 85 0
4.981595 -0.961360 35.672000 77 78 77 0
5.041140 -0.956078 35.476000 51 52 51 0
5.156388 -0.961360 35.672000 31 32 31 0
6.338640 -1.162084 43.120000 25 26 25 0
6.385700 -1.151520 42.728000 24 25 24 0
6.460611 -1.146237 42.532000 22 23 22 0
6.625319 -1.156802 42.924000 20 21 20 0
6.761216 -1.162084 43.120000 19 20 19 0
6.960499 -1.177931 43.708000 18 19 18 0
7.035890 -1.172648 43.512000 17 18 17 0
7.142495 -1.172648 43.512000 17 18 17 0
7.249099 -1.172648 43.512000 16 17 16 0
7.355704 -1.172648 43.512000 16 17 16 0
7.462308 -1.172648 43.512000 15 16 15 0
7.568912 -1.172648 43.512000 15 16 15 0
7.779240 -1.188495 44.100000 15 16 15 0
6.485101 -0.977207 36.260000 13 14 13 0
6.538403 -0.971925 36.064000 12 13 12 0
6.734805 -0.987771 36.652000 12 13 12 0
8.211420 -1.188495 44.100000 12 13 12 0
7.025326 -1.003618 37.240000 12 13 12 0
7.004197 -0.987771 36.652000 11 12 11 0
7.093995 -0.987771 36.652000 11 12 11 0
-8.489936 -1.061242 43.316000 14 15 14 0
-8.345876 -1.056440 43.120000 15 16 15 0
-9.513722 -1.219708 49.784000 15 16 15 0
-8.134588 -1.056440 43.120000 16 17 16 0
-8.028944 -1.056440 43.120000 17 18 17 0
-7.923300 -1.056440 43.120000 17 18 17 0
-7.817656 -1.056440 43.120000 18 19 18 0
-7.712012 -1.056440 43.120000 18 19 18 0
-8.816472 -1.224510 49.980000 19 20 19 0
-7.500724 -1.056440 43.120000 19 20 19 0
-7.361466 -1.051638 42.924000 19 20 19 0
-7.289436 -1.056440 43.120000 19 20 19 0
-7.151138 -1.051638 42.924000 20 21 20 0
-7.078148 -1.056440 43.120000 21 22 21 0
-6.972504 -1.056440 43.120000 21 22 21 0
-6.866860 -1.056440 43.120000 22 23 22 0
-6.761216 -1.056440 43.120000 23 24 23 0
-6.655572 -1.056440 43.120000 23 24 23 0
-6.549928 -1.056440 43.120000 25 26 25 0
-6.444284 -1.056440 43.120000 25 26 25 0
-6.338640 -1.056440 43.120000 25 26 25 0
-6.232996 -1.056440 43.120000 26 27 26 0
-6.127352 -1.056440 43.120000 26 27 26 0
-5.994337 -1.051638 42.924000 27 28 27 0
-5.916064 -1.056440 43.120000 28 29 28 0
-4.780391 -0.869162 35.476000 30 31 30 0
-4.693475 -0.869162 35.476000 32 33 32 0
-4.606559 -0.869162 35.476000 34 35 34 0
-4.494672 -0.864360 35.280000 36 37 36 0
-4.261295 -0.835548 34.104000 63 64 63 0
-4.153730 -0.830746 33.908000 87 88 87 0
-4.070655 -0.830746 33.908000 91 92 91 0
-3.987581 -0.830746 33.908000 90 91 90 0
-3.904506 -0.830746 33.908000 90 91 90 0
-3.821432 -0.830746 33.908000 91 92 91 0
-3.759966 -0.835548 34.104000 90 91 90 0
-3.676411 -0.835548 34.104000 90 91 90 0
-3.592856 -0.835548 34.104000 89 90 89 0
-3.509302 -0.835548 34.104000 90 91 90 0
-3.425747 -0.835548 34.104000 91 92 91 0
-3.342192 -0.835548 34.104000 91 92 91 0
-3.277365 -0.840350 34.300000 91 92 91 0
-3.175082 -0.835548 34.104000 90 91 90 0
-3.091528 -0.835548 34.104000 92 93 92 0
-3.025260 -0.840350 34.300000 91 92 91 0
-2.941225 -0.840350 34.300000 92 93 92 0
-2.857190 -0.840350 34.300000 94 95 94 0
-2.773155 -0.840350 34.300000 93 94 93 0
-2.689120 -0.840350 34.300000 94 95 94 0
-2.605085 -0.840350 34.300000 95 96 95 0
-2.521050 -0.840350 34.300000 93 94 93 0
-2.450941 -0.845152 34.496000 84 85 84 0
-2.447099 -0.873964 35.672000 72 73 72 0
-1.841087 -0.681884 27.832000 60 61 60 0
-1.772898 -0.681884 27.832000 59 60 59 0
-1.692705 -0.677082 27.636000 66 67 66 0
-1.613472 -0.672280 27.440000 70 71 70 0
-1.535199 -0.667478 27.244000 71 72 71 0
-1.468452 -0.667478 27.244000 73 74 73 0
-1.391620 -0.662676 27.048000 77 78 77 0
-1.325352 -0.662676 27.048000 78 79 78 0
-1.268208 -0.667478 27.244000 80 81 80 0
-1.192817 -0.662676 27.048000 79 80 79 0
-1.126549 -0.662676 27.048000 79 80 79 0
-0.699171 -0.436982 17.836000 78 79 78 0
-0.655473 -0.436982 17.836000 77 78 77 0
-0.927746 -0.662676 27.048000 72 73 72 0
-0.867721 -0.667478 27.244000 71 72 71 0
-0.535903 -0.446586 18.228000 75 76 75 0
-0.491245 -0.446586 18.228000 77 78 77 0
-0.451388 -0.451388 18.424000 75 76 75 0
-0.401927 -0.446586 18.228000 74 75 74 0
-0.361110 -0.451388 18.424000 75 76 75 0
-0.477319 -0.681884 27.832000 77 78 77 0
-0.270833 -0.451388 18.424000 78 79 78 0
-0.228095 -0.456190 18.620000 77 78 77 0
-0.182476 -0.456190 18.620000 76 77 76 0
-0.136857 -0.456190 18.620000 77 78 77 0
-0.136377 -0.681884 27.832000 78 79 78 0
-0.068188 -0.681884 27.832000 80 81 80 0
0.000000 -0.681884 27.832000 80 81 80 0
0.068188 -0.681884 27.832000 82 83 82 0
0.136377 -0.681884 27.832000 83 84 83 0
0.203125 -0.677082 27.636000 83 84 83 0
0.270833 -0.677082 27.636000 83 84 83 0
0.338541 -0.677082 27.636000 81 82 81 0
0.403368 -0.672280 27.440000 81 82 81 0
0.470596 -0.672280 27.440000 84 85 84 0
0.537824 -0.672280 27.440000 82 83 82 0
0.605052 -0.672280 27.440000 83 84 83 0
0.672280 -0.672280 27.440000 88 89 88 0
0.739508 -0.672280 27.440000 90 91 90 0
0.812498 -0.677082 27.636000 81 82 81 0
0.886449 -0.681884 27.832000 74 75 74 0
0.645389 -0.460992 18.816000 66 67 66 0
0.691488 -0.460992 18.816000 62 63 62 0
1.106381 -0.691488 28.224000 59 60 59 0
1.518392 -0.893172 36.456000 68 69 68 0
1.512630 -0.840350 34.300000 79 80 79 0
1.596665 -0.840350 34.300000 81 82 81 0
1.671096 -0.835548 34.104000 83 84 83 0
1.764735 -0.840350 34.300000 85 86 85 0
1.838206 -0.835548 34.104000 94 95 94 0
1.921760 -0.835548 34.104000 98 99 98 0
2.016840 -0.840350 34.300000 99 100 99 0
2.088870 -0.835548 34.104000 101 102 101 0
2.184910 -0.840350 34.300000 101 102 101 0
2.268945 -0.840350 34.300000 99 100 99 0
2.352980 -0.840350 34.300000 99 100 99 0
2.423089 -0.835548 34.104000 98 99 98 0
2.506644 -0.835548 34.104000 98 99 98 0
2.605085 -0.840350 34.300000 97 98 97 0
2.689120 -0.840350 34.300000 95 96 95 0
2.773155 -0.840350 34.300000 95 96 95 0
2.857190 -0.840350 34.300000 94 95 94 0
2.941225 -0.840350 34.300000 95 96 95 0
3.025260 -0.840350 34.300000 95 96 95 0
3.109295 -0.840350 34.300000 94 95 94 0
3.193330 -0.840350 34.300000 96 97 96 0
3.277365 -0.840350 34.300000 98 99 98 0
3.361400 -0.840350 34.300000 98 99 98 0
3.465123 -0.845152 34.496000 96 97 96 0
3.549638 -0.845152 34.496000 95 96 95 0
3.613505 -0.840350 34.300000 95 96 95 0
3.697540 -0.840350 34.300000 95 96 95 0
3.781575 -0.840350 34.300000 95 96 95 0
3.887699 -0.845152 34.496000 94 95 94 0
3.972214 -0.845152 34.496000 95 96 95 0
4.056730 -0.845152 34.496000 93 94 93 0
4.141245 -0.845152 34.496000 91 92 91 0
4.225760 -0.845152 34.496000 91 92 91 0
4.310275 -0.845152 34.496000 91 92 91 0
4.419761 -0.849954 34.692000 89 90 89 0
4.504756 -0.849954 34.692000 89 90 89 0
4.589752 -0.849954 34.692000 88 89 88 0
4.674747 -0.849954 34.692000 86 87 86 0
4.759742 -0.849954 34.692000 83 84 83 0
4.844738 -0.849954 34.692000 77 78 77 0
5.988094 -1.032430 42.140000 55 56 55 0
5.043060 -0.854756 34.888000 30 31 30 0
6.281016 -1.046836 42.728000 26 27 26 0
6.297823 -1.032430 42.140000 23 24 23 0
6.430838 -1.037232 42.336000 21 22 21 0
6.595067 -1.046836 42.728000 20 21 20 0
6.669018 -1.042034 42.532000 19 20 19 0
6.835647 -1.051638 42.924000 18 19 18 0
6.940811 -1.051638 42.924000 17 18 17 0
7.045975 -1.051638 42.924000 17 18 17 0
7.281753 -1.070846 43.708000 15 16 15 0
7.256302 -1.051638 42.924000 15 16 15 0
7.361466 -1.051638 42.924000 14 15 14 0
6.307427 -0.888370 36.260000 14 15 14 0
7.813814 -1.085252 44.296000 13 14 13 0
6.485101 -0.888370 36.260000 13 14 13 0
7.924260 -1.070846 43.708000 12 13 12 0
6.662775 -0.888370 36.260000 13 14 13 0
6.751612 -0.888370 36.260000 11 12 11 0
6.840449 -0.888370 36.260000 12 13 12 0
6.929286 -0.888370 36.260000 11 12 11 0
7.018123 -0.888370 36.260000 11 12 11 0
-9.642416 -1.084772 49.196000 15 16 15 0
-9.521886 -1.084772 49.196000 15 16 15 0
-9.363900 -1.080450 49.000000 15 16 15 0
-9.243850 -1.080450 49.000000 16 17 16 0
-7.882963 -0.933509 42.336000 16 17 16 0
-9.003750 -1.080450 49.000000 16 17 16 0
-8.883700 -1.080450 49.000000 17 18 17 0
-8.763650 -1.080450 49.000000 17 18 17 0
-8.678174 -1.084772 49.196000 18 19 18 0
-8.523550 -1.080450 49.000000 18 19 18 0
-8.403500 -1.080450 49.000000 19 20 19 0
-7.156901 -0.933509 42.336000 19 20 19 0
-8.163400 -1.080450 49.000000 19 20 19 0
-8.043350 -1.080450 49.000000 21 22 21 0
-6.845731 -0.933509 42.336000 21 22 21 0
-6.710795 -0.929187 42.140000 22 23 22 0
-6.607552 -0.929187 42.140000 23 24 23 0
-7.563150 -1.080450 49.000000 23 24 23 0
-6.430838 -0.933509 42.336000 24 25 24 0
-6.297823 -0.929187 42.140000 24 25 24 0
-6.194580 -0.929187 42.140000 25 26 25 0
-6.091337 -0.929187 42.140000 25 26 25 0
-5.988094 -0.929187 42.140000 26 27 26 0
-5.884851 -0.929187 42.140000 26 27 26 0
-5.781608 -0.929187 42.140000 27 28 27 0
-5.678365 -0.929187 42.140000 28 29 28 0
-5.575122 -0.929187 42.140000 31 32 31 0
-4.479306 -0.760637 34.496000 33 34 33 0
-4.369820 -0.756315 34.300000 37 38 37 0
-4.163334 -0.734706 33.320000 67 68 67 0
-4.057690 -0.730384 33.124000 86 87 86 0
-3.976536 -0.730384 33.124000 87 88 87 0
-3.895382 -0.730384 33.124000 89 90 89 0
-3.814229 -0.730384 33.124000 90 91 90 0
-3.733075 -0.730384 33.124000 91 92 91 0
-3.651921 -0.730384 33.124000 87 88 87 0
-3.570767 -0.730384 33.124000 88 89 88 0
-3.510262 -0.734706 33.320000 87 88 87 0
-3.408460 -0.730384 33.124000 88 89 88 0
-3.346994 -0.734706 33.320000 89 90 89 0
-3.265360 -0.734706 33.320000 89 90 89 0
-3.183726 -0.734706 33.320000 88 89 88 0
-3.102092 -0.734706 33.320000 88 89 88 0
-3.038225 -0.739028 33.516000 88 89 88 0
-2.956111 -0.739028 33.516000 90 91 90 0
-2.873997 -0.739028 33.516000 90 91 90 0
-2.791883 -0.739028 33.516000 91 92 91 0
-2.709769 -0.739028 33.516000 90 91 90 0
-2.627654 -0.739028 33.516000 90 91 90 0
-2.545540 -0.739028 33.516000 90 91 90 0
-2.463426 -0.739028 33.516000 91 92 91 0
-2.381312 -0.739028 33.516000 81 82 81 0
-2.406762 -0.773602 35.084000 71 72 71 0
-2.359703 -0.786568 35.672000 63 64 63 0
-1.722958 -0.596408 27.048000 55 56 55 0
-1.632680 -0.587765 26.656000 61 62 61 0
-1.544323 -0.579121 26.264000 67 68 67 0
-1.468932 -0.574799 26.068000 69 70 69 0
-1.405065 -0.574799 26.068000 73 74 73 0
-1.341199 -0.574799 26.068000 75 76 75 0
-1.267728 -0.570478 25.872000 75 76 75 0
-1.204342 -0.570478 25.872000 76 77 76 0
-1.140955 -0.570478 25.872000 78 79 78 0
-1.077569 -0.570478 25.872000 76 77 76 0
-1.021866 -0.574799 26.068000 76 77 76 0
-0.950796 -0.570478 25.872000 75 76 75 0
-0.900855 -0.579121 26.264000 73 74 73 0
-0.836508 -0.579121 26.264000 71 72 71 0
-0.777924 -0.583443 26.460000 73 74 73 0
-0.718379 -0.587765 26.656000 73 74 73 0
-0.653072 -0.587765 26.656000 73 74 73 0
-0.587765 -0.587765 26.656000 74 75 74 0
-0.526299 -0.592087 26.852000 74 75 74 0
-0.302526 -0.388962 17.640000 76 77 76 0
-0.394724 -0.592087 26.852000 76 77 76 0
-0.328937 -0.592087 26.852000 76 77 76 0
-0.172872 -0.388962 17.640000 76 77 76 0
-0.197362 -0.592087 26.852000 76 77 76 0
-0.131575 -0.592087 26.852000 77 78 77 0
-0.043218 -0.388962 17.640000 77 78 77 0
0.000000 -0.592087 26.852000 77 78 77 0
0.065787 -0.592087 26.852000 76 77 76 0
0.131575 -0.592087 26.852000 78 79 78 0
0.195922 -0.587765 26.656000 75 76 75 0
0.259308 -0.583443 26.460000 79 80 79 0
0.324135 -0.583443 26.460000 80 81 80 0
0.388962 -0.583443 26.460000 79 80 79 0
0.450428 -0.579121 26.264000 81 82 81 0
0.514774 -0.579121 26.264000 80 81 80 0
0.579121 -0.579121 26.264000 83 84 83 0
0.643468 -0.579121 26.264000 86 87 86 0
0.713097 -0.583443 26.460000 87 88 87 0
0.777924 -0.583443 26.460000 77 78 77 0
0.855236 -0.592087 26.852000 67 68 67 0
0.927746 -0.596408 27.048000 62 63 62 0
1.008420 -0.605052 27.440000 59 60 59 0
1.083331 -0.609374 27.636000 60 61 60 0
1.493902 -0.790889 35.868000 67 68 67 0
1.478056 -0.739028 33.516000 75 76 75 0
1.560170 -0.739028 33.516000 78 79 78 0
1.642284 -0.739028 33.516000 81 82 81 0
1.724398 -0.739028 33.516000 84 85 84 0
1.795948 -0.734706 33.320000 91 92 91 0
1.877582 -0.734706 33.320000 96 97 96 0
1.970741 -0.739028 33.516000 96 97 96 0
2.052855 -0.739028 33.516000 98 99 98 0
2.134969 -0.739028 33.516000 98 99 98 0
2.217083 -0.739028 33.516000 97 98 97 0
2.299198 -0.739028 33.516000 97 98 97 0
2.367386 -0.734706 33.320000 95 96 95 0
2.449020 -0.734706 33.320000 95 96 95 0
2.530654 -0.734706 33.320000 94 95 94 0
2.612288 -0.734706 33.320000 93 94 93 0
2.709769 -0.739028 33.516000 91 92 91 0
2.791883 -0.739028 33.516000 92 93 92 0
2.857190 -0.734706 33.320000 92 93 92 0
2.956111 -0.739028 33.516000 93 94 93 0
3.038225 -0.739028 33.516000 92 93 92 0
3.120340 -0.739028 33.516000 94 95 94 0
3.202454 -0.739028 33.516000 95 96 95 0
3.284568 -0.739028 33.516000 94 95 94 0
3.366682 -0.739028 33.516000 94 95 94 0
3.448796 -0.739028 33.516000 94 95 94 0
3.530911 -0.739028 33.516000 92 93 92 0
3.613025 -0.739028 33.516000 92 93 92 0
3.695139 -0.739028 33.516000 92 93 92 0
3.777253 -0.739028 33.516000 91 92 91 0
3.859367 -0.739028 33.516000 90 91 90 0
3.941482 -0.739028 33.516000 89 90 89 0
4.047126 -0.743350 33.712000 89 90 89 0
4.105710 -0.739028 33.516000 90 91 90 0
4.212314 -0.743350 33.712000 89 90 89 0
4.294909 -0.743350 33.712000 88 89 88 0
4.377503 -0.743350 33.712000 88 89 88 0
4.460098 -0.743350 33.712000 86 87 86 0
4.542692 -0.743350 33.712000 84 85 84 0
4.652178 -0.747671 33.908000 81 82 81 0
5.802737 -0.916222 41.552000 78 79 78 0
5.876688 -0.911900 41.356000 55 56 55 0
5.014729 -0.764959 34.692000 31 32 31 0
6.194580 -0.929187 42.140000 26 27 26 0
6.268531 -0.924865 41.944000 23 24 23 0
6.311749 -0.916222 41.552000 21 22 21 0
6.474056 -0.924865 41.944000 19 20 19 0
6.576819 -0.924865 41.944000 18 19 18 0
6.679582 -0.924865 41.944000 18 19 18 0
6.814038 -0.929187 42.140000 17 18 17 0
6.981628 -0.937831 42.532000 16 17 16 0
7.020524 -0.929187 42.140000 16 17 16 0
7.190035 -0.937831 42.532000 15 16 15 0
5.983292 -0.769280 34.888000 15 16 15 0
7.466630 -0.946474 42.924000 13 14 13 0
6.154243 -0.769280 34.888000 13 14 13 0
7.676957 -0.946474 42.924000 12 13 12 0
6.396264 -0.777924 35.280000 12 13 12 0
7.995330 -0.959440 43.512000 12 13 12 0
8.247915 -0.976727 44.296000 12 13 12 0
7.136252 -0.834107 37.828000 12 13 12 0
8.390054 -0.968083 43.904000 11 12 11 0
6.942251 -0.790889 35.868000 10 11 10 0
-9.488752 -0.948875 48.412000 14 15 14 0
-9.370143 -0.948875 48.412000 15 16 15 0
-9.251533 -0.948875 48.412000 16 17 16 0
-9.132924 -0.948875 48.412000 16 17 16 0
-9.014314 -0.948875 48.412000 16 17 16 0
-8.895705 -0.948875 48.412000 16 17 16 0
-8.777096 -0.948875 48.412000 16 17 16 0
-8.623432 -0.945034 48.216000 17 18 17 0
-8.539877 -0.948875 48.412000 18 19 18 0
-8.387173 -0.945034 48.216000 17 18 17 0
-8.269044 -0.945034 48.216000 18 19 18 0
-8.184049 -0.948875 48.412000 19 20 19 0
-8.065439 -0.948875 48.412000 19 20 19 0
-7.914656 -0.945034 48.216000 20 21 20 0
-7.828220 -0.948875 48.412000 21 22 21 0
-7.678398 -0.945034 48.216000 21 22 21 0
-7.591002 -0.948875 48.412000 22 23 22 0
-6.383299 -0.810578 41.356000 22 23 22 0
-7.353783 -0.948875 48.412000 23 24 23 0
-6.180654 -0.810578 41.356000 24 25 24 0
-7.087752 -0.945034 48.216000 25 26 25 0
-6.997955 -0.948875 48.412000 25 26 25 0
-5.876688 -0.810578 41.356000 27 28 27 0
-5.775365 -0.810578 41.356000 26 27 26 0
-5.647152 -0.806736 41.160000 27 28 27 0
-5.572721 -0.810578 41.356000 28 29 28 0
-5.471399 -0.810578 41.356000 29 30 29 0
-5.344626 -0.806736 41.160000 31 32 31 0
-5.243784 -0.806736 41.160000 37 38 37 0
-4.040883 -0.633864 32.340000 72 73 72 0
-3.937640 -0.630022 32.144000 86 87 86 0
-3.858887 -0.630022 32.144000 87 88 87 0
-3.803184 -0.633864 32.340000 88 89 88 0
-3.701382 -0.630022 32.144000 88 89 88 0
-3.622629 -0.630022 32.144000 89 90 89 0
-3.565485 -0.633864 32.340000 86 87 86 0
-3.486252 -0.633864 32.340000 87 88 87 0
-3.407019 -0.633864 32.340000 87 88 87 0
-3.327786 -0.633864 32.340000 87 88 87 0
-3.268241 -0.637706 32.536000 86 87 86 0
-3.188528 -0.637706 32.536000 86 87 86 0
-3.108815 -0.637706 32.536000 85 86 85 0
-3.010854 -0.633864 32.340000 86 87 86 0
-2.949388 -0.637706 32.536000 87 88 87 0
-2.869675 -0.637706 32.536000 87 88 87 0
-2.789962 -0.637706 32.536000 87 88 87 0
-2.710249 -0.637706 32.536000 88 89 88 0
-2.630536 -0.637706 32.536000 89 90 89 0
-2.550822 -0.637706 32.536000 90 91 90 0
-2.471109 -0.637706 32.536000 89 90 89 0
-2.391396 -0.637706 32.536000 88 89 88 0
-2.325609 -0.641547 32.732000 82 83 82 0
-2.393317 -0.683805 34.888000 69 70 69 0
-2.359703 -0.699171 35.672000 66 67 66 0
-2.234851 -0.687646 35.084000 57 58 57 0
-1.584660 -0.507091 25.872000 57 58 57 0
-1.993790 -0.664597 33.908000 62 63 62 0
-1.413709 -0.491725 25.088000 65 66 65 0
-1.341679 -0.487883 24.892000 69 70 69 0
-1.280693 -0.487883 24.892000 70 71 70 0
-1.219708 -0.487883 24.892000 71 72 71 0
-1.149599 -0.484042 24.696000 75 76 75 0
-1.089094 -0.484042 24.696000 75 76 75 0
-1.036752 -0.487883 24.892000 74 75 74 0
-0.975766 -0.487883 24.892000 75 76 75 0
-0.914781 -0.487883 24.892000 74 75 74 0
-0.860518 -0.491725 25.088000 73 74 73 0
-0.805295 -0.495566 25.284000 69 70 69 0
-0.743350 -0.495566 25.284000 72 73 72 0
-0.686686 -0.499408 25.480000 73 74 73 0
-0.624260 -0.499408 25.480000 72 73 72 0
-0.561834 -0.499408 25.480000 74 75 74 0
-0.503250 -0.503250 25.676000 74 75 74 0
-0.443705 -0.507091 25.872000 75 76 75 0
-0.380318 -0.507091 25.872000 76 77 76 0
-0.316932 -0.507091 25.872000 75 76 75 0
-0.253546 -0.507091 25.872000 75 76 75 0
-0.190159 -0.507091 25.872000 76 77 76 0
-0.126773 -0.507091 25.872000 77 78 77 0
-0.063386 -0.507091 25.872000 77 78 77 0
0.000000 -0.503250 25.676000 76 77 76 0
0.062906 -0.503250 25.676000 73 74 73 0
0.125812 -0.503250 25.676000 72 73 72 0
0.185837 -0.495566 25.284000 75 76 75 0
0.247783 -0.495566 25.284000 76 77 76 0
0.309729 -0.495566 25.284000 77 78 77 0
0.368794 -0.491725 25.088000 77 78 77 0
0.430259 -0.491725 25.088000 82 83 82 0
0.491725 -0.491725 25.088000 80 81 80 0
0.553190 -0.491725 25.088000 76 77 76 0
0.614656 -0.491725 25.088000 79 80 79 0
0.681404 -0.495566 25.284000 75 76 75 0
0.743350 -0.495566 25.284000 71 72 71 0
0.817781 -0.503250 25.676000 64 65 64 0
0.894132 -0.510933 26.068000 59 60 59 0
0.979608 -0.522458 26.656000 58 59 58 0
1.382976 -0.691488 35.280000 63 64 63 0
1.477575 -0.695330 35.476000 67 68 67 0
1.382976 -0.614656 31.360000 75 76 75 0
1.505427 -0.633864 32.340000 77 78 77 0
1.594264 -0.637706 32.536000 79 80 79 0
1.673977 -0.637706 32.536000 81 82 81 0
1.764255 -0.641547 32.732000 88 89 88 0
1.833404 -0.637706 32.536000 93 94 93 0
1.924642 -0.641547 32.732000 94 95 94 0
1.992830 -0.637706 32.536000 95 96 95 0
2.072543 -0.637706 32.536000 96 97 96 0
2.165222 -0.641547 32.732000 94 95 94 0
2.231970 -0.637706 32.536000 94 95 94 0
2.311683 -0.637706 32.536000 93 94 93 0
2.391396 -0.637706 32.536000 92 93 92 0
2.471109 -0.637706 32.536000 92 93 92 0
2.550822 -0.637706 32.536000 91 92 91 0
2.630536 -0.637706 32.536000 90 91 90 0
2.710249 -0.637706 32.536000 90 91 90 0
2.789962 -0.637706 32.536000 89 90 89 0
2.869675 -0.637706 32.536000 89 90 89 0
2.949388 -0.637706 32.536000 90 91 90 0
3.029102 -0.637706 32.536000 93 94 93 0
3.108815 -0.637706 32.536000 92 93 92 0
3.188528 -0.637706 32.536000 92 93 92 0
3.287929 -0.641547 32.732000 92 93 92 0
3.368123 -0.641547 32.732000 91 92 91 0
3.448316 -0.641547 32.732000 90 91 90 0
3.528510 -0.641547 32.732000 90 91 90 0
3.608703 -0.641547 32.732000 91 92 91 0
3.688896 -0.641547 32.732000 89 90 89 0
3.769090 -0.641547 32.732000 88 89 88 0
3.826234 -0.637706 32.536000 87 88 87 0
3.905947 -0.637706 32.536000 86 87 86 0
4.009670 -0.641547 32.732000 88 89 88 0
4.089863 -0.641547 32.732000 88 89 88 0
4.170057 -0.641547 32.732000 87 88 87 0
4.250250 -0.641547 32.732000 86 87 86 0
4.330444 -0.641547 32.732000 85 86 85 0
4.410637 -0.641547 32.732000 82 83 82 0
4.517722 -0.645389 32.928000 81 82 81 0
5.693251 -0.799053 40.768000 78 79 78 0
5.793133 -0.799053 40.768000 58 59 58 0
6.006342 -0.814419 41.552000 31 32 31 0
6.165768 -0.822102 41.944000 26 27 26 0
6.151362 -0.806736 41.160000 22 23 22 0
6.252204 -0.806736 41.160000 20 21 20 0
6.292541 -0.799053 40.768000 19 20 19 0
6.453888 -0.806736 41.160000 18 19 18 0
6.617156 -0.814419 41.552000 18 19 18 0
6.655572 -0.806736 41.160000 16 17 16 0
6.852934 -0.818261 41.748000 16 17 16 0
7.020524 -0.825944 42.140000 15 16 15 0
7.123767 -0.825944 42.140000 14 15 14 0
7.227010 -0.825944 42.140000 13 14 13 0
7.330253 -0.825944 42.140000 13 14 13 0
7.433496 -0.825944 42.140000 13 14 13 0
7.712012 -0.845152 43.120000 12 13 12 0
7.817656 -0.845152 43.120000 12 13 12 0
7.815255 -0.833627 42.532000 12 13 12 0
8.028944 -0.845152 43.120000 12 13 12 0
8.282490 -0.860518 43.904000 11 12 11 0
8.390054 -0.860518 43.904000 11 12 11 0
6.866380 -0.695330 35.476000 11 12 11 0
-9.373504 -0.820182 47.824000 14 15 14 0
-9.256335 -0.820182 47.824000 13 14 13 0
-9.139166 -0.820182 47.824000 14 15 14 0
-9.021998 -0.820182 47.824000 15 16 15 0
-8.904829 -0.820182 47.824000 15 16 15 0
-8.787660 -0.820182 47.824000 15 16 15 0
-8.670491 -0.820182 47.824000 15 16 15 0
-8.518268 -0.816820 47.628000 17 18 17 0
-8.436154 -0.820182 47.824000 17 18 17 0
-8.318985 -0.820182 47.824000 17 18 17 0
-8.201816 -0.820182 47.824000 18 19 18 0
-8.051513 -0.816820 47.628000 19 20 19 0
-7.967478 -0.820182 47.824000 19 20 19 0
-7.818136 -0.816820 47.628000 20 21 20 0
-7.701448 -0.816820 47.628000 20 21 20 0
-7.584759 -0.816820 47.628000 20 21 20 0
-7.468070 -0.816820 47.628000 22 23 22 0
-6.262288 -0.695810 40.572000 22 23 22 0
-7.234693 -0.816820 47.628000 22 23 22 0
-6.034193 -0.692448 40.376000 23 24 23 0
-5.964084 -0.695810 40.572000 23 24 23 0
-5.864683 -0.695810 40.572000 24 25 24 0
-5.765281 -0.695810 40.572000 24 25 24 0
-5.665880 -0.695810 40.572000 25 26 25 0
-5.566478 -0.695810 40.572000 26 27 26 0
-5.440666 -0.692448 40.376000 28 29 28 0
-5.367676 -0.695810 40.572000 29 30 29 0
-5.268274 -0.695810 40.572000 31 32 31 0
-4.120116 -0.554631 32.340000 37 38 37 0
-3.918432 -0.537824 31.360000 74 75 74 0
-3.793580 -0.531101 30.968000 84 85 84 0
-3.694179 -0.527740 30.772000 85 86 85 0
-3.641837 -0.531101 30.968000 86 87 86 0
-3.543396 -0.527740 30.772000 87 88 87 0
-3.490094 -0.531101 30.968000 85 86 85 0
-3.414222 -0.531101 30.968000 86 87 86 0
-3.359479 -0.534463 31.164000 85 86 85 0
-3.283127 -0.534463 31.164000 83 84 83 0
-3.206776 -0.534463 31.164000 84 85 84 0
-3.130424 -0.534463 31.164000 82 83 82 0
-3.054072 -0.534463 31.164000 82 83 82 0
-2.977720 -0.534463 31.164000 83 84 83 0
-2.901368 -0.534463 31.164000 82 83 82 0
-2.825017 -0.534463 31.164000 84 85 84 0
-2.748665 -0.534463 31.164000 84 85 84 0
-2.672313 -0.534463 31.164000 86 87 86 0
-2.612288 -0.537824 31.360000 87 88 87 0
-2.535456 -0.537824 31.360000 86 87 86 0
-2.458624 -0.537824 31.360000 86 87 86 0
-2.381792 -0.537824 31.360000 86 87 86 0
-2.304960 -0.537824 31.360000 85 86 85 0
-2.242054 -0.541185 31.556000 79 80 79 0
-2.406762 -0.601691 35.084000 68 69 68 0
-2.320807 -0.601691 35.084000 65 66 65 0
-2.222366 -0.598329 34.888000 63 64 63 0
-2.088870 -0.584884 34.104000 54 55 54 0
-1.947691 -0.568077 33.124000 56 57 56 0
-1.855493 -0.564715 32.928000 61 62 61 0
-1.299421 -0.413452 24.108000 64 65 64 0
-1.240357 -0.413452 24.108000 67 68 67 0
-1.181292 -0.413452 24.108000 68 69 68 0
-1.122227 -0.413452 24.108000 70 71 70 0
-1.054519 -0.410091 23.912000 73 74 73 0
-0.995935 -0.410091 23.912000 73 74 73 0
-0.937350 -0.410091 23.912000 76 77 76 0
-0.878766 -0.410091 23.912000 72 73 72 0
-0.826904 -0.413452 24.108000 71 72 71 0
-0.780325 -0.420175 24.500000 69 70 69 0
-0.714538 -0.416814 24.304000 70 71 70 0
-0.660275 -0.420175 24.500000 71 72 71 0
-0.600250 -0.420175 24.500000 72 73 72 0
-0.540225 -0.420175 24.500000 73 74 73 0
-0.480200 -0.420175 24.500000 75 76 75 0
-0.423536 -0.423536 24.696000 75 76 75 0
-0.365912 -0.426898 24.892000 74 75 74 0
-0.304927 -0.426898 24.892000 75 76 75 0
-0.243942 -0.426898 24.892000 76 77 76 0
-0.181516 -0.423536 24.696000 76 77 76 0
-0.121010 -0.423536 24.696000 75 76 75 0
-0.060505 -0.423536 24.696000 73 74 73 0
0.000000 -0.423536 24.696000 73 74 73 0
0.060505 -0.423536 24.696000 72 73 72 0
0.121010 -0.423536 24.696000 73 74 73 0
0.178634 -0.416814 24.304000 73 74 73 0
0.238179 -0.416814 24.304000 72 73 72 0
0.297724 -0.416814 24.304000 72 73 72 0
0.354388 -0.413452 24.108000 73 74 73 0
0.413452 -0.413452 24.108000 73 74 73 0
0.472517 -0.413452 24.108000 74 75 74 0
0.535903 -0.416814 24.304000 73 74 73 0
0.590646 -0.413452 24.108000 72 73 72 0
0.654993 -0.416814 24.304000 67 68 67 0
0.973846 -0.568077 33.124000 60 61 60 0
1.067485 -0.574799 33.516000 57 58 57 0
1.169767 -0.584884 34.104000 55 56 55 0
1.282134 -0.598329 34.888000 55 56 55 0
1.037232 -0.453789 26.460000 65 66 65 0
1.453085 -0.598329 34.888000 67 68 67 0
1.253322 -0.487403 28.420000 73 74 73 0
1.341199 -0.494126 28.812000 76 77 76 0
1.517432 -0.531101 30.968000 77 78 77 0
1.613472 -0.537824 31.360000 80 81 80 0
1.711433 -0.544547 31.752000 86 87 86 0
1.778181 -0.541185 31.556000 91 92 91 0
1.855493 -0.541185 31.556000 92 93 92 0
1.932805 -0.541185 31.556000 92 93 92 0
1.997632 -0.537824 31.360000 92 93 92 0
2.074464 -0.537824 31.360000 90 91 90 0
2.151296 -0.537824 31.360000 89 90 89 0
2.228128 -0.537824 31.360000 90 91 90 0
2.319366 -0.541185 31.556000 89 90 89 0
2.381792 -0.537824 31.360000 89 90 89 0
2.458624 -0.537824 31.360000 89 90 89 0
2.551303 -0.541185 31.556000 88 89 88 0
2.628615 -0.541185 31.556000 88 89 88 0
2.705927 -0.541185 31.556000 88 89 88 0
2.783239 -0.541185 31.556000 88 89 88 0
2.860551 -0.541185 31.556000 88 89 88 0
2.937864 -0.541185 31.556000 90 91 90 0
3.033904 -0.544547 31.752000 90 91 90 0
3.111696 -0.544547 31.752000 90 91 90 0
3.189488 -0.544547 31.752000 89 90 89 0
3.267281 -0.544547 31.752000 90 91 90 0
3.345073 -0.544547 31.752000 88 89 88 0
3.422866 -0.544547 31.752000 87 88 87 0
3.500658 -0.544547 31.752000 87 88 87 0
3.578450 -0.544547 31.752000 86 87 86 0
3.656243 -0.544547 31.752000 86 87 86 0
3.734035 -0.544547 31.752000 85 86 85 0
3.811828 -0.544547 31.752000 85 86 85 0
3.889620 -0.544547 31.752000 85 86 85 0
3.991903 -0.547908 31.948000 85 86 85 0
4.070175 -0.547908 31.948000 84 85 84 0
4.122997 -0.544547 31.752000 84 85 84 0
4.226720 -0.547908 31.948000 83 84 83 0
4.304993 -0.547908 31.948000 80 81 80 0
4.383266 -0.547908 31.948000 80 81 80 0
4.461538 -0.547908 31.948000 76 77 76 0
4.539811 -0.547908 31.948000 60 61 60 0
4.759742 -0.564715 32.928000 32 33 32 0
6.136956 -0.715978 41.748000 25 26 25 0
6.209946 -0.712617 41.552000 22 23 22 0
6.252204 -0.705894 41.160000 20 21 20 0
6.292541 -0.699171 40.768000 19 20 19 0
6.392422 -0.699171 40.768000 18 19 18 0
6.648369 -0.715978 41.748000 18 19 18 0
6.750652 -0.715978 41.748000 16 17 16 0
6.852934 -0.715978 41.748000 16 17 16 0
6.955217 -0.715978 41.748000 16 17 16 0
6.891830 -0.699171 40.768000 14 15 14 0
6.991712 -0.699171 40.768000 14 15 14 0
7.398441 -0.729424 42.532000 14 15 14 0
7.502645 -0.729424 42.532000 13 14 13 0
7.536739 -0.722701 42.140000 12 13 12 0
7.568912 -0.715978 41.748000 12 13 12 0
7.815255 -0.729424 42.532000 12 13 12 0
7.919458 -0.729424 42.532000 11 12 11 0
9.354776 -0.850434 49.588000 11 12 11 0
8.240232 -0.739508 43.120000 11 12 11 0
8.345876 -0.739508 43.120000 10 11 10 0
-7.836864 -0.587765 39.984000 13 14 13 0
-7.738903 -0.587765 39.984000 14 15 14 0
-7.678398 -0.590646 40.180000 13 14 13 0
-7.579957 -0.590646 40.180000 13 14 13 0
-8.795343 -0.694369 47.236000 14 15 14 0
-7.347060 -0.587765 39.984000 15 16 15 0
-8.563887 -0.694369 47.236000 15 16 15 0
-7.151138 -0.587765 39.984000 16 17 16 0
-7.053178 -0.587765 39.984000 16 17 16 0
-8.216702 -0.694369 47.236000 16 17 16 0
-6.857256 -0.587765 39.984000 18 19 18 0
-6.759295 -0.587765 39.984000 18 19 18 0
-6.661334 -0.587765 39.984000 18 19 18 0
-7.753789 -0.694369 47.236000 19 20 19 0
-6.433720 -0.584884 39.788000 19 20 19 0
-7.522333 -0.694369 47.236000 19 20 19 0
-6.238758 -0.584884 39.788000 19 20 19 0
-6.141278 -0.584884 39.788000 22 23 22 0
-6.073570 -0.587765 39.984000 22 23 22 0
-5.975609 -0.587765 39.984000 21 22 21 0
-5.848836 -0.584884 39.788000 22 23 22 0
-5.751355 -0.584884 39.788000 22 23 22 0
-5.653875 -0.584884 39.788000 23 24 23 0
-5.556394 -0.584884 39.788000 24 25 24 0
-5.485805 -0.587765 39.984000 25 26 25 0
-5.387844 -0.587765 39.984000 26 27 26 0
-5.263952 -0.584884 39.788000 28 29 28 0
-5.191922 -0.587765 39.984000 29 30 29 0
-4.020234 -0.463873 31.556000 38 39 38 0
-3.698020 -0.435061 29.596000 72 73 72 0
-3.505460 -0.420655 28.616000 84 85 84 0
-3.411821 -0.417774 28.420000 86 87 86 0
-3.365242 -0.420655 28.616000 82 83 82 0
-3.317702 -0.423536 28.812000 84 85 84 0
-3.269202 -0.426418 29.008000 84 85 84 0
-3.176523 -0.423536 28.812000 85 86 85 0
-3.105934 -0.423536 28.812000 83 84 83 0
-3.035344 -0.423536 28.812000 83 84 83 0
-2.944586 -0.420655 28.616000 83 84 83 0
-2.894165 -0.423536 28.812000 83 84 83 0
-2.842784 -0.426418 29.008000 83 84 83 0
-2.771714 -0.426418 29.008000 82 83 82 0
-2.700645 -0.426418 29.008000 81 82 81 0
-2.629575 -0.426418 29.008000 82 83 82 0
-2.558506 -0.426418 29.008000 83 84 83 0
-2.487436 -0.426418 29.008000 84 85 84 0
-2.432693 -0.429299 29.204000 84 85 84 0
-2.361143 -0.429299 29.204000 84 85 84 0
-2.289594 -0.429299 29.204000 84 85 84 0
-2.247816 -0.435061 29.596000 84 85 84 0
-2.175306 -0.435061 29.596000 82 83 82 0
-2.116722 -0.437942 29.792000 78 79 78 0
-2.420208 -0.518616 35.280000 67 68 67 0
-2.320807 -0.515735 35.084000 65 66 65 0
-2.209880 -0.509972 34.692000 64 65 64 0
-1.608670 -0.386081 26.264000 56 57 56 0
-1.959216 -0.489804 33.320000 52 53 52 0
-1.822359 -0.475398 32.340000 56 57 56 0
-1.732562 -0.472517 32.144000 61 62 61 0
-1.643725 -0.469636 31.948000 64 65 64 0
-1.133272 -0.339982 23.128000 69 70 69 0
-1.076608 -0.339982 23.128000 66 67 66 0
-1.019945 -0.339982 23.128000 69 70 69 0
-0.963281 -0.339982 23.128000 71 72 71 0
-0.906618 -0.339982 23.128000 70 71 70 0
-0.857157 -0.342863 23.324000 65 66 65 0
-0.800013 -0.342863 23.324000 65 66 65 0
-0.749112 -0.345744 23.520000 66 67 66 0
-0.685726 -0.342863 23.324000 65 66 65 0
-0.633864 -0.345744 23.520000 70 71 70 0
-0.576240 -0.345744 23.520000 70 71 70 0
-0.518616 -0.345744 23.520000 71 72 71 0
-0.464834 -0.348625 23.716000 73 74 73 0
-0.406729 -0.348625 23.716000 75 76 75 0
-0.345744 -0.345744 23.520000 75 76 75 0
-0.290521 -0.348625 23.716000 72 73 72 0
-0.232417 -0.348625 23.716000 72 73 72 0
-0.174313 -0.348625 23.716000 72 73 72 0
-0.116208 -0.348625 23.716000 74 75 74 0
-0.058104 -0.348625 23.716000 72 73 72 0
0.000000 -0.348625 23.716000 73 74 73 0
0.058104 -0.348625 23.716000 73 74 73 0
0.115248 -0.345744 23.520000 72 73 72 0
0.171431 -0.342863 23.324000 70 71 70 0
0.228575 -0.342863 23.324000 69 70 69 0
0.391363 -0.469636 31.948000 67 68 67 0
0.342863 -0.342863 23.324000 68 69 68 0
0.547908 -0.469636 31.948000 69 70 69 0
0.626181 -0.469636 31.948000 67 68 67 0
0.708775 -0.472517 32.144000 66 67 66 0
0.787528 -0.472517 32.144000 63 64 63 0
0.871563 -0.475398 32.340000 57 58 57 0
0.962321 -0.481160 32.732000 55 56 55 0
1.048757 -0.484042 32.928000 53 54 53 0
1.156322 -0.495566 33.712000 53 54 53 0
0.929187 -0.371675 25.284000 57 58 57 0
1.014182 -0.380318 25.872000 67 68 67 0
1.110222 -0.391843 26.656000 69 70 69 0
1.210104 -0.403368 27.440000 73 74 73 0
1.286456 -0.406249 27.636000 74 75 74 0
1.382976 -0.414893 28.224000 75 76 75 0
1.502546 -0.429299 29.204000 78 79 78 0
1.595224 -0.435061 29.596000 83 84 83 0
1.700868 -0.443705 30.184000 88 89 88 0
1.740245 -0.435061 29.596000 89 90 89 0
1.848770 -0.443705 30.184000 88 89 88 0
1.885265 -0.435061 29.596000 87 88 87 0
1.944810 -0.432180 29.400000 87 88 87 0
2.003394 -0.429299 29.204000 88 89 88 0
2.102796 -0.435061 29.596000 86 87 86 0
2.204118 -0.440824 29.988000 87 88 87 0
2.247816 -0.435061 29.596000 86 87 86 0
2.304960 -0.432180 29.400000 87 88 87 0
2.424530 -0.440824 29.988000 86 87 86 0
2.481674 -0.437942 29.792000 87 88 87 0
2.605085 -0.446586 30.380000 85 86 85 0
2.662229 -0.443705 30.184000 86 87 86 0
2.736180 -0.443705 30.184000 88 89 88 0
2.810130 -0.443705 30.184000 88 89 88 0
2.902809 -0.446586 30.380000 88 89 88 0
2.977240 -0.446586 30.380000 88 89 88 0
3.071359 -0.449467 30.576000 89 90 89 0
3.146270 -0.449467 30.576000 89 90 89 0
3.241830 -0.452348 30.772000 87 88 87 0
3.296093 -0.449467 30.576000 86 87 86 0
3.371004 -0.449467 30.576000 85 86 85 0
3.423826 -0.446586 30.380000 84 85 84 0
3.520826 -0.449467 30.576000 84 85 84 0
3.595738 -0.449467 30.576000 84 85 84 0
3.694179 -0.452348 30.772000 83 84 83 0
3.769570 -0.452348 30.772000 82 83 82 0
3.869452 -0.455230 30.968000 83 84 83 0
3.945323 -0.455230 30.968000 84 85 84 0
4.021195 -0.455230 30.968000 82 83 82 0
4.097066 -0.455230 30.968000 81 82 81 0
4.172938 -0.455230 30.968000 79 80 79 0
4.275701 -0.458111 31.164000 79 80 79 0
4.352053 -0.458111 31.164000 76 77 76 0
4.428404 -0.458111 31.164000 63 64 63 0
4.618083 -0.469636 31.948000 33 34 33 0
6.021708 -0.602171 40.964000 25 26 25 0
6.151362 -0.605052 41.160000 22 23 22 0
6.133114 -0.593527 40.376000 20 21 20 0
6.232036 -0.593527 40.376000 19 20 19 0
6.423155 -0.602171 40.964000 18 19 18 0
6.585943 -0.607933 41.356000 16 17 16 0
6.687265 -0.607933 41.356000 16 17 16 0
7.818136 -0.700132 47.628000 15 16 15 0
6.889910 -0.607933 41.356000 15 16 15 0
6.825563 -0.593527 40.376000 14 15 14 0
7.159782 -0.613696 41.748000 14 15 14 0
7.193876 -0.607933 41.356000 13 14 13 0
7.468070 -0.622339 42.336000 13 14 13 0
7.571794 -0.622339 42.336000 12 13 12 0
7.675517 -0.622339 42.336000 13 14 13 0
7.671195 -0.613696 41.748000 12 13 12 0
6.423155 -0.507091 34.496000 11 12 11 0
6.692547 -0.521497 35.476000 11 12 11 0
8.090410 -0.622339 42.336000 11 12 11 0
8.345876 -0.633864 43.120000 11 12 11 0
-7.721616 -0.482601 39.396000 13 14 13 0
-7.625096 -0.482601 39.396000 13 14 13 0
-7.566031 -0.485002 39.592000 13 14 13 0
-7.432055 -0.482601 39.396000 14 15 14 0
-7.372030 -0.485002 39.592000 14 15 14 0
-7.239015 -0.482601 39.396000 15 16 15 0
-7.142495 -0.482601 39.396000 15 16 15 0
-7.045975 -0.482601 39.396000 16 17 16 0
-6.949454 -0.482601 39.396000 16 17 16 0
-6.852934 -0.482601 39.396000 16 17 16 0
-6.756414 -0.482601 39.396000 16 17 16 0
-6.659894 -0.482601 39.396000 17 18 17 0
-6.563374 -0.482601 39.396000 18 19 18 0
-6.466853 -0.482601 39.396000 17 18 17 0
-6.338640 -0.480200 39.200000 18 19 18 0
-6.242600 -0.480200 39.200000 19 20 19 0
-6.146560 -0.480200 39.200000 20 21 20 0
-6.050520 -0.480200 39.200000 21 22 21 0
-5.984252 -0.482601 39.396000 21 22 21 0
-5.858440 -0.480200 39.200000 21 22 21 0
-5.791212 -0.482601 39.396000 22 23 22 0
-5.694692 -0.482601 39.396000 22 23 22 0
-5.570320 -0.480200 39.200000 24 25 24 0
-5.501651 -0.482601 39.396000 24 25 24 0
-5.405131 -0.482601 39.396000 24 25 24 0
-5.308611 -0.482601 39.396000 25 26 25 0
-5.212091 -0.482601 39.396000 27 28 27 0
-5.115571 -0.482601 39.396000 28 29 28 0
-3.945323 -0.379358 30.968000 36 37 36 0
-3.453118 -0.338541 27.636000 70 71 70 0
-3.337390 -0.333739 27.244000 82 83 82 0
-3.270642 -0.333739 27.244000 84 85 84 0
-3.226944 -0.336140 27.440000 80 81 80 0
-3.159716 -0.336140 27.440000 82 83 82 0
-3.092488 -0.336140 27.440000 80 81 80 0
-3.025260 -0.336140 27.440000 81 82 81 0
-2.958032 -0.336140 27.440000 81 82 81 0
-2.890804 -0.336140 27.440000 83 84 83 0
-2.823576 -0.336140 27.440000 82 83 82 0
-2.756348 -0.336140 27.440000 83 84 83 0
-2.689120 -0.336140 27.440000 82 83 82 0
-2.640620 -0.338541 27.636000 80 81 80 0
-2.554664 -0.336140 27.440000 80 81 80 0
-2.487436 -0.336140 27.440000 80 81 80 0
-2.420208 -0.336140 27.440000 82 83 82 0
-2.352980 -0.336140 27.440000 83 84 83 0
-2.285752 -0.336140 27.440000 83 84 83 0
-2.218524 -0.336140 27.440000 83 84 83 0
-2.151296 -0.336140 27.440000 81 82 81 0
-2.084068 -0.336140 27.440000 83 84 83 0
-2.031246 -0.338541 27.636000 82 83 82 0
-1.963538 -0.338541 27.636000 79 80 79 0
-1.815156 -0.324135 26.460000 65 66 65 0
-1.737364 -0.321734 26.264000 64 65 64 0
-2.184910 -0.420175 34.300000 61 62 61 0
-1.584660 -0.316932 25.872000 56 57 56 0
-1.486699 -0.309729 25.284000 53 54 53 0
-1.800270 -0.391363 31.948000 52 53 52 0
-1.690304 -0.384160 31.360000 56 57 56 0
-1.139515 -0.271313 22.148000 62 63 62 0
-1.085252 -0.271313 22.148000 65 66 65 0
-1.030989 -0.271313 22.148000 67 68 67 0
-0.976727 -0.271313 22.148000 66 67 66 0
-0.922464 -0.271313 22.148000 66 67 66 0
-0.868202 -0.271313 22.148000 66 67 66 0
-0.813939 -0.271313 22.148000 63 64 63 0
-0.766399 -0.273714 22.344000 62 63 62 0
-0.711656 -0.273714 22.344000 65 66 65 0
-0.662676 -0.276115 22.540000 65 66 65 0
-0.607453 -0.276115 22.540000 69 70 69 0
-0.552230 -0.276115 22.540000 70 71 70 0
-0.497007 -0.276115 22.540000 70 71 70 0
-0.441784 -0.276115 22.540000 71 72 71 0
-0.386561 -0.276115 22.540000 74 75 74 0
-0.331338 -0.276115 22.540000 73 74 73 0
-0.276115 -0.276115 22.540000 75 76 75 0
-0.220892 -0.276115 22.540000 72 73 72 0
-0.165669 -0.276115 22.540000 73 74 73 0
-0.110446 -0.276115 22.540000 72 73 72 0
-0.055223 -0.276115 22.540000 72 73 72 0
0.000000 -0.276115 22.540000 73 74 73 0
0.055223 -0.276115 22.540000 71 72 71 0
0.109486 -0.273714 22.344000 69 70 69 0
0.231937 -0.386561 31.556000 66 67 66 0
0.218971 -0.273714 22.344000 65 66 65 0
0.384160 -0.384160 31.360000 65 66 65 0
0.328457 -0.273714 22.344000 64 65 64 0
0.537824 -0.384160 31.360000 65 66 65 0
0.614656 -0.384160 31.360000 62 63 62 0
0.695810 -0.386561 31.556000 60 61 60 0
0.777924 -0.388962 31.752000 56 57 56 0
0.860999 -0.391363 31.948000 53 54 53 0
0.945034 -0.393764 32.144000 51 52 51 0
1.042514 -0.400967 32.732000 50 51 50 0
1.129430 -0.403368 32.928000 51 52 51 0
0.885969 -0.295323 24.108000 59 60 59 0
0.975766 -0.304927 24.892000 64 65 64 0
1.077569 -0.316932 25.872000 73 74 73 0
1.175530 -0.326536 26.656000 72 73 72 0
1.249961 -0.328937 26.852000 72 73 72 0
1.334956 -0.333739 27.244000 75 76 75 0
1.411788 -0.336140 27.440000 78 79 78 0
1.489580 -0.338541 27.636000 80 81 80 0
1.546244 -0.336140 27.440000 86 87 86 0
1.613472 -0.336140 27.440000 85 86 85 0
1.680700 -0.336140 27.440000 84 85 84 0
1.735443 -0.333739 27.244000 84 85 84 0
1.802191 -0.333739 27.244000 84 85 84 0
1.882384 -0.336140 27.440000 83 84 83 0
1.963538 -0.338541 27.636000 84 85 84 0
2.016840 -0.336140 27.440000 84 85 84 0
2.098954 -0.338541 27.636000 85 86 85 0
2.166662 -0.338541 27.636000 83 84 83 0
2.234371 -0.338541 27.636000 86 87 86 0
2.318406 -0.340942 27.832000 84 85 84 0
2.386594 -0.340942 27.832000 84 85 84 0
2.454782 -0.340942 27.832000 87 88 87 0
2.522971 -0.340942 27.832000 84 85 84 0
2.591159 -0.340942 27.832000 85 86 85 0
2.678075 -0.343343 28.028000 85 86 85 0
2.765952 -0.345744 28.224000 85 86 85 0
2.854789 -0.348145 28.420000 85 86 85 0
2.904250 -0.345744 28.224000 85 86 85 0
2.994047 -0.348145 28.420000 84 85 84 0
3.063676 -0.348145 28.420000 85 86 85 0
3.133305 -0.348145 28.420000 84 85 84 0
3.247112 -0.352947 28.812000 84 85 84 0
3.340271 -0.355348 29.008000 83 84 83 0
3.411341 -0.355348 29.008000 82 83 82 0
3.482410 -0.355348 29.008000 82 83 82 0
3.577490 -0.357749 29.204000 81 82 81 0
3.649040 -0.357749 29.204000 81 82 81 0
3.745560 -0.360150 29.400000 81 82 81 0
3.817590 -0.360150 29.400000 81 82 81 0
3.915551 -0.362551 29.596000 79 80 79 0
4.014472 -0.364952 29.792000 79 80 79 0
4.114354 -0.367353 29.988000 80 81 80 0
4.160453 -0.364952 29.792000 75 76 75 0
4.289146 -0.369754 30.184000 62 63 62 0
4.419761 -0.374556 30.576000 33 34 33 0
5.964084 -0.497007 40.572000 24 25 24 0
6.122070 -0.501809 40.964000 21 22 21 0
6.222432 -0.501809 40.964000 20 21 20 0
6.262288 -0.497007 40.572000 18 19 18 0
6.423155 -0.501809 40.964000 17 18 17 0
6.679582 -0.513814 41.944000 17 18 17 0
6.623879 -0.501809 40.964000 16 17 16 0
6.724241 -0.501809 40.964000 15 16 15 0
6.824602 -0.501809 40.964000 14 15 14 0
6.328556 -0.458591 37.436000 14 15 14 0
7.025326 -0.501809 40.964000 14 15 14 0
7.296159 -0.513814 41.944000 13 14 13 0
7.226050 -0.501809 40.964000 13 14 13 0
6.099500 -0.417774 34.104000 12 13 12 0
6.396264 -0.432180 35.280000 12 13 12 0
6.374655 -0.424977 34.692000 11 12 11 0
7.809973 -0.513814 41.944000 11 12 11 0
6.544646 -0.424977 34.692000 11 12 11 0
6.517274 -0.417774 34.104000 11 12 11 0
8.118261 -0.513814 41.944000 10 11 10 0
-7.606368 -0.380318 38.808000 11 12 11 0
-7.511288 -0.380318 38.808000 12 13 12 0
-7.453664 -0.382239 39.004000 14 15 14 0
-7.321129 -0.380318 38.808000 13 14 13 0
-7.226050 -0.380318 38.808000 13 14 13 0
-7.130970 -0.380318 38.808000 14 15 14 0
-7.035890 -0.380318 38.808000 15 16 15 0
-6.940811 -0.380318 38.808000 15 16 15 0
-6.811157 -0.378398 38.612000 16 17 16 0
-6.750652 -0.380318 38.808000 16 17 16 0
-6.655572 -0.380318 38.808000 17 18 17 0
-6.560492 -0.380318 38.808000 17 18 17 0
-6.432759 -0.378398 38.612000 17 18 17 0
-6.370333 -0.380318 38.808000 17 18 17 0
-6.275254 -0.380318 38.808000 18 19 18 0
-6.180174 -0.380318 38.808000 18 19 18 0
-6.054362 -0.378398 38.612000 19 20 19 0
-5.959762 -0.378398 38.612000 20 21 20 0
-5.865163 -0.378398 38.612000 21 22 21 0
-5.770563 -0.378398 38.612000 21 22 21 0
-5.704776 -0.380318 38.808000 21 22 21 0
-5.581365 -0.378398 38.612000 22 23 22 0
-5.514617 -0.380318 38.808000 22 23 22 0
-5.392166 -0.378398 38.612000 23 24 23 0
-5.297566 -0.378398 38.612000 24 25 24 0
-4.120116 -0.299645 30.576000 25 26 25 0
-4.045205 -0.299645 30.576000 26 27 26 0
-3.970294 -0.299645 30.576000 27 28 27 0
-3.795501 -0.291962 29.792000 36 37 36 0
-3.306177 -0.259308 26.460000 69 70 69 0
-3.217340 -0.257387 26.264000 79 80 79 0
-3.152993 -0.257387 26.264000 82 83 82 0
-3.088646 -0.257387 26.264000 81 82 81 0
-3.024300 -0.257387 26.264000 81 82 81 0
-2.959953 -0.257387 26.264000 81 82 81 0
-2.917215 -0.259308 26.460000 81 82 81 0
-2.852388 -0.259308 26.460000 82 83 82 0
-2.766912 -0.257387 26.264000 80 81 80 0
-2.702566 -0.257387 26.264000 81 82 81 0
-2.657907 -0.259308 26.460000 81 82 81 0
-2.573872 -0.257387 26.264000 82 83 82 0
-2.528253 -0.259308 26.460000 82 83 82 0
-2.463426 -0.259308 26.460000 80 81 80 0
-2.398599 -0.259308 26.460000 79 80 79 0
-2.316485 -0.257387 26.264000 80 81 80 0
-2.268945 -0.259308 26.460000 81 82 81 0
-2.187791 -0.257387 26.264000 81 82 81 0
-2.139291 -0.259308 26.460000 81 82 81 0
-2.074464 -0.259308 26.460000 82 83 82 0
-1.994751 -0.257387 26.264000 82 83 82 0
-1.930404 -0.257387 26.264000 82 83 82 0
-1.879983 -0.259308 26.460000 78 79 78 0
-1.788265 -0.255466 26.068000 64 65 64 0
-1.698467 -0.251625 25.676000 61 62 61 0
-2.172425 -0.334219 34.104000 58 59 58 0
-1.560650 -0.249704 25.480000 56 57 56 0
-1.486699 -0.247783 25.284000 54 55 54 0
-1.413709 -0.245862 25.088000 51 52 51 0
-1.193777 -0.217050 22.148000 50 51 50 0
-1.099178 -0.209367 21.364000 55 56 55 0
-1.027628 -0.205526 20.972000 60 61 60 0
-0.985370 -0.207446 21.168000 60 61 60 0
-0.942152 -0.209367 21.364000 61 62 61 0
-0.881647 -0.207446 21.168000 65 66 65 0
-0.837469 -0.209367 21.364000 65 66 65 0
-0.792330 -0.211288 21.560000 64 65 64 0
-0.732785 -0.209367 21.364000 64 65 64 0
-0.686686 -0.211288 21.560000 66 67 66 0
-0.639626 -0.213209 21.756000 65 66 65 0
-0.581042 -0.211288 21.560000 69 70 69 0
-0.528220 -0.211288 21.560000 70 71 70 0
-0.475398 -0.211288 21.560000 70 71 70 0
-0.426418 -0.213209 21.756000 70 71 70 0
-0.373115 -0.213209 21.756000 72 73 72 0
-0.316932 -0.211288 21.560000 72 73 72 0
-0.266511 -0.213209 21.756000 72 73 72 0
-0.213209 -0.213209 21.756000 71 72 71 0
-0.159907 -0.213209 21.756000 72 73 72 0
-0.106604 -0.213209 21.756000 72 73 72 0
-0.053302 -0.213209 21.756000 73 74 73 0
0.000000 -0.213209 21.756000 71 72 71 0
0.052822 -0.211288 21.560000 69 70 69 0
0.106604 -0.213209 21.756000 65 66 65 0
0.158466 -0.211288 21.560000 63 64 63 0
0.211288 -0.211288 21.560000 61 62 61 0
0.264110 -0.211288 21.560000 62 63 62 0
0.452348 -0.301566 30.772000 60 61 60 0
0.531101 -0.303486 30.968000 58 59 58 0
0.606973 -0.303486 30.968000 55 56 55 0
0.484042 -0.215130 21.952000 52 53 52 0
0.773122 -0.309249 31.556000 51 52 51 0
0.607453 -0.220892 22.540000 47 48 47 0
0.679963 -0.226654 23.128000 47 48 47 0
0.742869 -0.228575 23.324000 48 49 48 0
1.095816 -0.313090 31.948000 54 55 54 0
1.174089 -0.313090 31.948000 58 59 58 0
1.275411 -0.318853 32.536000 62 63 62 0
1.028588 -0.242021 24.696000 73 74 73 0
1.115024 -0.247783 25.284000 76 77 76 0
1.195218 -0.251625 25.676000 74 75 74 0
1.277332 -0.255466 26.068000 74 75 74 0
1.351283 -0.257387 26.264000 78 79 78 0
1.415630 -0.257387 26.264000 79 80 79 0
1.479976 -0.257387 26.264000 82 83 82 0
1.544323 -0.257387 26.264000 82 83 82 0
1.608670 -0.257387 26.264000 82 83 82 0
1.673017 -0.257387 26.264000 81 82 81 0
1.750329 -0.259308 26.460000 82 83 82 0
1.801710 -0.257387 26.264000 82 83 82 0
1.879983 -0.259308 26.460000 81 82 81 0
1.944810 -0.259308 26.460000 80 81 80 0
2.009637 -0.259308 26.460000 83 84 83 0
2.074464 -0.259308 26.460000 82 83 82 0
2.139291 -0.259308 26.460000 82 83 82 0
2.204118 -0.259308 26.460000 83 84 83 0
2.268945 -0.259308 26.460000 82 83 82 0
2.333772 -0.259308 26.460000 83 84 83 0
2.398599 -0.259308 26.460000 83 84 83 0
2.463426 -0.259308 26.460000 83 84 83 0
2.546981 -0.261229 26.656000 84 85 84 0
2.612288 -0.261229 26.656000 82 83 82 0
2.677595 -0.261229 26.656000 83 84 83 0
2.742902 -0.261229 26.656000 83 84 83 0
2.808210 -0.261229 26.656000 82 83 82 0
2.894646 -0.263150 26.852000 81 82 81 0
2.960433 -0.263150 26.852000 81 82 81 0
3.026220 -0.263150 26.852000 81 82 81 0
3.092008 -0.263150 26.852000 81 82 81 0
3.157795 -0.263150 26.852000 80 81 80 0
3.247112 -0.265070 27.048000 79 80 79 0
3.313380 -0.265070 27.048000 80 81 80 0
3.379648 -0.265070 27.048000 80 81 80 0
3.445915 -0.265070 27.048000 79 80 79 0
3.537633 -0.266991 27.244000 79 80 79 0
3.604381 -0.266991 27.244000 80 81 80 0
3.697540 -0.268912 27.440000 78 79 78 0
3.764768 -0.268912 27.440000 77 78 77 0
3.859367 -0.270833 27.636000 73 74 73 0
3.954927 -0.272754 27.832000 61 62 61 0
4.164775 -0.282358 28.812000 33 34 33 0
5.848836 -0.389922 39.788000 23 24 23 0
6.004901 -0.393764 40.180000 21 22 21 0
5.210170 -0.336140 34.300000 19 20 19 0
5.687489 -0.361110 36.848000 18 19 18 0
5.193843 -0.324615 33.124000 17 18 17 0
6.617156 -0.407210 41.552000 17 18 17 0
6.592186 -0.399526 40.768000 16 17 16 0
6.820761 -0.407210 41.552000 15 16 15 0
6.791949 -0.399526 40.768000 14 15 14 0
7.024366 -0.407210 41.552000 14 15 14 0
7.126168 -0.407210 41.552000 14 15 14 0
5.864202 -0.330378 33.712000 14 15 14 0
5.946797 -0.330378 33.712000 13 14 13 0
6.204664 -0.339982 34.692000 12 13 12 0
6.396264 -0.345744 35.280000 11 12 11 0
7.815255 -0.416814 42.532000 11 12 11 0
6.277174 -0.330378 33.712000 11 12 11 0
6.581621 -0.341902 34.888000 10 11 10 0
6.629641 -0.339982 34.692000 10 11 10 0
6.714637 -0.339982 34.692000 10 11 10 0
-5.839232 -0.218971 29.792000 11 12 11 0
-5.728306 -0.217531 29.596000 12 13 12 0
-5.655796 -0.217531 29.596000 13 14 13 0
-5.620261 -0.218971 29.792000 13 14 13 0
-5.510775 -0.217531 29.596000 13 14 13 0
-5.474280 -0.218971 29.792000 14 15 14 0
-5.365755 -0.217531 29.596000 15 16 15 0
-5.293245 -0.217531 29.596000 15 16 15 0
-6.672859 -0.278036 37.828000 16 17 16 0
-6.614275 -0.279476 38.024000 15 16 15 0
-5.075714 -0.217531 29.596000 16 17 16 0
-5.003204 -0.217531 29.596000 16 17 16 0
-4.930694 -0.217531 29.596000 17 18 17 0
-6.241640 -0.279476 38.024000 17 18 17 0
-6.148481 -0.279476 38.024000 17 18 17 0
-4.713163 -0.217531 29.596000 18 19 18 0
-4.640653 -0.217531 29.596000 19 20 19 0
-4.568143 -0.217531 29.596000 19 20 19 0
-4.495632 -0.217531 29.596000 20 21 20 0
-5.653395 -0.278036 37.828000 21 22 21 0
-4.350612 -0.217531 29.596000 21 22 21 0
-4.278102 -0.217531 29.596000 21 22 21 0
-4.205592 -0.217531 29.596000 22 23 22 0
-4.133081 -0.217531 29.596000 22 23 22 0
-4.060571 -0.217531 29.596000 23 24 23 0
-3.988061 -0.217531 29.596000 24 25 24 0
-3.915551 -0.217531 29.596000 25 26 25 0
-3.843041 -0.217531 29.596000 27 28 27 0
-3.445915 -0.198803 27.048000 38 39 38 0
