ply
format ascii 1.0
element vertex 1125
property float x
property float y
property float z
property uchar red
property uchar green
property uchar blue
property uchar alpha
end_header
-3.077018 -1.059301 20.588945 87 88 87 0
-3.051714 -1.068100 20.759958 85 86 85 0
-3.012409 -1.072214 20.839913 84 85 84 0
-2.988844 -1.082168 21.033383 81 82 81 0
-2.967307 -1.093218 21.248172 81 82 81 0
-2.940818 -1.102807 21.434535 78 79 78 0
-2.901448 -1.107825 21.532078 76 77 76 0
-2.878693 -1.119492 21.758825 76 77 76 0
-2.854487 -1.131023 21.982961 73 74 73 0
-2.819738 -1.138740 22.132952 70 71 70 0
-2.797971 -1.152106 22.392724 70 71 70 0
-2.748535 -1.154385 22.437018 69 70 69 0
-2.740126 -1.174340 22.824872 67 68 67 0
-2.707079 -1.184347 23.019377 66 67 66 0
-2.291926 -1.266591 24.617900 68 69 68 0
-2.520947 -1.430808 27.809676 74 75 74 0
-2.478592 -1.445846 28.101954 76 77 76 0
-2.434029 -1.460417 28.385172 75 76 75 0
-2.387205 -1.474450 28.657922 74 75 74 0
-2.344979 -1.492259 29.004071 75 76 75 0
-2.059460 -1.351521 26.268621 72 73 72 0
-2.021204 -1.369203 26.612298 70 71 70 0
-1.757216 -1.230051 23.907705 69 70 69 0
-3.471334 -0.867833 17.710886 148 149 148 0
-3.452808 -0.874129 17.839360 148 149 148 0
-3.446126 -0.883622 18.033103 148 149 148 0
-3.455635 -0.897568 18.317706 148 149 148 0
-3.441198 -0.905578 18.481192 143 144 143 0
-3.429968 -0.914658 18.666494 140 141 140 0
-3.404320 -0.920086 18.777274 135 136 135 0
-3.381478 -0.926432 18.906782 130 131 130 0
-3.361630 -0.933786 19.056859 125 126 125 0
-3.340961 -0.941116 19.206446 121 122 121 0
-3.307321 -0.944949 19.284669 117 118 117 0
-3.287215 -0.952816 19.445224 114 115 114 0
-3.258246 -0.958308 19.557301 111 112 111 0
-3.225537 -0.962847 19.649939 107 108 107 0
-3.209218 -0.972490 19.846740 104 105 104 0
-3.186187 -0.980365 20.007451 101 102 101 0
-3.155193 -0.985998 20.122404 98 99 98 0
-3.125684 -0.992280 20.250622 95 96 95 0
-3.107760 -1.002503 20.459247 91 92 91 0
-3.080336 -1.009946 20.611150 88 89 88 0
-3.050756 -1.016919 20.753442 85 86 85 0
-3.031039 -1.027471 20.968796 84 85 84 0
-3.004650 -1.036086 21.144619 82 83 82 0
-2.984080 -1.047046 21.368281 80 81 80 0
-2.955793 -1.055640 21.543681 78 79 78 0
-2.922407 -1.062693 21.687621 76 77 76 0
-2.882088 -1.067440 21.784490 74 75 74 0
-2.858785 -1.078787 22.016058 75 76 75 0
-2.834091 -1.090035 22.245612 71 72 71 0
-2.812752 -1.103040 22.511024 70 71 70 0
-2.764932 -1.105973 22.570872 69 70 69 0
-2.752029 -1.123277 22.924025 67 68 67 0
-2.530221 -1.367687 27.911976 68 69 68 0
-2.481345 -1.378525 28.133163 74 75 74 0
-2.436837 -1.392478 28.417924 74 75 74 0
-2.397312 -1.410183 28.779251 76 77 76 0
-2.108589 -1.277933 26.080258 73 74 73 0
-2.069759 -1.293600 26.399992 72 73 72 0
-1.803927 -1.163824 23.751512 71 72 71 0
-1.763457 -1.175638 23.992615 69 70 69 0
-3.471334 -0.824442 17.710886 149 150 149 0
-3.452808 -0.830422 17.839360 148 149 148 0
-3.064567 -0.746497 16.036459 148 149 148 0
-3.075092 -0.758789 16.300512 148 149 148 0
-3.052210 -0.763052 16.392104 146 147 146 0
-3.432925 -0.869674 18.682584 142 143 142 0
-3.409866 -0.875506 18.807865 137 138 137 0
-3.383432 -0.880619 18.917710 132 133 132 0
-3.351378 -0.884391 18.998742 127 128 127 0
-3.334240 -0.892261 19.167808 123 124 123 0
-3.311275 -0.898775 19.307729 119 120 119 0
-3.275742 -0.902016 19.377358 116 117 116 0
-3.256128 -0.909800 19.544586 112 113 112 0
-3.235889 -0.917640 19.712999 109 110 109 0
-3.208088 -0.923540 19.839751 105 106 105 0
-3.185232 -0.931068 20.001458 103 104 103 0
-3.157111 -0.937267 20.134635 100 101 100 0
-3.132653 -0.944768 20.295777 97 98 97 0
-3.107249 -0.952221 20.455883 93 94 93 0
-3.088025 -0.961844 20.662596 90 91 90 0
-3.064019 -0.970273 20.843669 87 88 87 0
-3.042172 -0.979683 21.045813 87 88 87 0
-3.005703 -0.984627 21.152030 83 84 83 0
-2.986635 -0.995545 21.386571 80 81 80 0
-2.956158 -1.002982 21.546344 80 81 80 0
-2.930997 -1.012526 21.751368 78 79 78 0
-2.905880 -1.022439 21.964327 76 77 76 0
-2.873334 -1.030063 22.128105 74 75 74 0
-2.841673 -1.038303 22.305123 73 74 73 0
-2.811690 -1.047492 22.502520 71 72 71 0
-2.788294 -1.059552 22.761586 69 70 69 0
-2.748704 -1.065824 22.896326 68 69 68 0
-2.492367 -1.315416 28.258127 69 70 69 0
-2.443076 -1.326241 28.490686 71 72 71 0
-2.149704 -1.201305 25.806766 73 74 73 0
-2.116462 -1.218569 26.177632 73 74 73 0
-1.844964 -1.095447 23.532700 72 73 72 0
-1.805784 -1.106771 23.775956 71 72 71 0
-1.763662 -1.116986 23.995404 70 71 70 0
-3.471334 -0.781050 17.710886 165 166 165 0
-3.452808 -0.786716 17.839360 151 152 151 0
-3.076836 -0.710039 16.100660 148 149 148 0
-3.072655 -0.718283 16.287595 148 149 148 0
-3.054862 -0.723520 16.406348 148 149 148 0
-3.036548 -0.728771 16.525431 144 145 144 0
-3.011776 -0.732594 16.612112 140 141 140 0
-3.367442 -0.830328 18.828306 135 136 135 0
-3.361680 -0.840420 19.057141 130 131 130 0
-3.341014 -0.847018 19.206751 125 126 125 0
-3.311372 -0.851496 19.308293 120 121 120 0
-3.283881 -0.856665 19.425500 118 119 118 0
-3.255523 -0.861756 19.540953 114 115 114 0
-3.234531 -0.868979 19.704729 111 112 111 0
-3.209207 -0.875238 19.846675 108 109 108 0
-3.190921 -0.883640 20.037183 104 105 104 0
-3.162528 -0.889461 20.169185 101 102 101 0
-3.137723 -0.896492 20.328622 98 99 98 0
-3.125408 -0.907376 20.575429 95 96 95 0
-3.094903 -0.913250 20.708620 92 93 92 0
-3.076138 -0.922841 20.926108 88 89 88 0
-3.050842 -0.930765 21.105792 87 88 87 0
-3.021265 -0.937634 21.261538 83 84 83 0
-2.989972 -0.944202 21.410469 81 82 81 0
-2.956012 -0.950147 21.545280 82 83 82 0
-2.943468 -0.963317 21.843922 78 79 78 0
-2.916826 -0.972275 22.047060 75 76 75 0
-2.886282 -0.980247 22.227820 73 74 73 0
-2.854448 -0.988078 22.405398 73 74 73 0
-2.831697 -0.999422 22.662637 72 73 72 0
-2.801242 -1.008447 22.867285 70 71 70 0
-3.089391 -1.134878 25.734204 67 68 67 0
-3.041815 -1.140681 25.865772 67 68 67 0
-2.456828 -1.263512 28.651060 67 68 67 0
-2.160728 -1.143915 25.939115 73 74 73 0
-2.125480 -1.159353 26.289180 72 73 72 0
-1.854825 -1.043339 23.658481 71 72 71 0
-1.806038 -1.048667 23.779303 71 72 71 0
-1.765289 -1.059174 24.017542 71 72 71 0
4.413812 -2.407534 54.592602 99 100 99 0
4.545248 -2.406308 54.564798 117 118 117 0
4.677761 -2.405706 54.551148 122 123 122 0
4.809743 -2.404871 54.532231 97 98 97 0
4.929703 -2.398234 54.381721 100 101 100 0
5.074881 -2.403891 54.509995 99 100 99 0
-3.471334 -0.737658 17.710886 160 161 160 0
-3.452808 -0.743009 17.839360 156 157 156 0
-3.083992 -0.672152 16.138103 150 151 150 0
-3.071807 -0.678191 16.283099 148 149 148 0
-3.056757 -0.683748 16.416523 148 149 148 0
-3.039447 -0.688941 16.541207 146 147 146 0
-3.014448 -0.692508 16.626851 142 143 142 0
-2.995915 -0.697679 16.750994 137 138 137 0
-3.360938 -0.793555 19.052939 131 132 131 0
-3.342224 -0.800251 19.213705 127 128 127 0
-3.312037 -0.804352 19.312168 123 124 123 0
-3.285095 -0.809371 19.432684 119 120 119 0
-3.262715 -0.815679 19.584123 115 116 115 0
-3.243089 -0.822873 19.756863 112 113 112 0
-3.216784 -0.828566 19.893533 109 110 109 0
-3.193335 -0.835180 20.052342 106 107 106 0
-3.167496 -0.841366 20.200870 103 104 103 0
-3.148521 -0.849601 20.398582 99 100 99 0
-3.126114 -0.857160 20.580078 96 97 96 0
-3.106995 -0.865884 20.789529 93 94 93 0
-3.072126 -0.870436 20.898818 90 91 90 0
-3.054469 -0.880101 21.130880 86 87 86 0
-3.025652 -0.886829 21.292415 84 85 84 0
-2.997377 -0.893954 21.463491 81 82 81 0
-2.959582 -0.898445 21.571299 80 81 80 0
-2.941924 -0.909322 21.832464 79 80 79 0
-2.919425 -0.919078 22.066701 75 76 75 0
-2.890717 -0.927211 22.261971 73 74 73 0
-2.861716 -0.935561 22.462450 72 73 72 0
-2.849074 -0.949691 22.801717 71 72 71 0
-2.809420 -0.955203 22.934044 69 70 69 0
-3.093289 -1.073182 25.766670 67 68 67 0
-2.168718 -1.084359 26.035033 67 68 67 0
-1.892925 -0.975143 23.412808 71 72 71 0
-1.856308 -0.986164 23.677396 71 72 71 0
-1.591781 -0.872912 20.958276 71 72 71 0
-1.555548 -0.881477 21.163920 71 72 71 0
4.015349 -2.275364 54.630599 95 96 95 0
4.157647 -2.280000 54.741893 107 108 107 0
4.290720 -2.279445 54.728577 113 114 113 0
4.412749 -2.273234 54.579454 123 124 123 0
4.545327 -2.272664 54.565752 133 134 133 0
4.677880 -2.272113 54.552542 126 127 126 0
4.809685 -2.271240 54.531580 105 106 105 0
4.929603 -2.264953 54.380623 107 108 107 0
5.074659 -2.270242 54.507615 102 103 102 0
5.206373 -2.269445 54.488465 101 102 101 0
5.338390 -2.268816 54.473365 109 110 109 0
5.484257 -2.273960 54.596885 108 109 108 0
5.616630 -2.273398 54.583379 91 92 91 0
-3.471334 -0.694267 17.710886 155 156 155 0
-3.452808 -0.699303 17.839360 157 158 157 0
-3.083992 -0.632614 16.138103 156 157 156 0
-3.072796 -0.638503 16.288346 149 150 149 0
-3.056964 -0.643571 16.417639 148 149 148 0
-3.038073 -0.648122 16.533733 148 149 148 0
-3.014952 -0.651881 16.629628 145 146 145 0
-2.994566 -0.656343 16.743448 139 140 139 0
-2.975860 -0.661302 16.869956 134 135 134 0
-3.338761 -0.752397 19.193799 129 130 129 0
-3.306933 -0.755870 19.282406 124 125 124 0
-3.285095 -0.761761 19.432684 121 122 121 0
-3.266360 -0.768555 19.606000 117 118 117 0
-3.240111 -0.773758 19.738718 114 115 114 0
-3.218113 -0.780149 19.901749 111 112 111 0
-3.192893 -0.785943 20.049562 106 107 106 0
-3.173604 -0.793401 20.239821 103 104 103 0
-3.151436 -0.800365 20.417464 100 101 100 0
-3.139670 -0.810238 20.669325 96 97 96 0
-3.109517 -0.815611 20.806403 94 95 94 0
-3.086211 -0.822989 20.994630 92 93 92 0
-3.063950 -0.830902 21.196473 88 89 88 0
-3.038878 -0.838311 21.385491 84 85 84 0
-3.025306 -0.849209 21.663490 81 82 81 0
-2.997813 -0.856518 21.849950 81 82 81 0
-2.950745 -0.858399 21.897921 79 80 79 0
-2.925616 -0.866849 22.113500 75 76 75 0
-2.908094 -0.877915 22.395796 74 75 74 0
-2.880178 -0.886209 22.607366 74 75 74 0
-2.842034 -0.891619 22.745371 71 72 71 0
-3.144650 -1.006288 25.670612 68 69 68 0
-3.114776 -1.017070 25.945655 67 68 67 0
-1.860257 -0.930128 23.727765 69 70 69 0
-1.595280 -0.823370 21.004348 71 72 71 0
-1.558010 -0.830939 21.197417 70 71 70 0
3.891409 -2.146984 54.770003 93 94 93 0
4.014584 -2.141111 54.620187 108 109 108 0
4.147178 -2.140479 54.604049 123 124 123 0
4.280301 -2.140150 54.595673 112 113 112 0
4.412827 -2.139553 54.580427 128 129 128 0
4.545454 -2.139037 54.567279 135 136 135 0
4.677745 -2.138398 54.550957 125 126 125 0
4.797965 -2.132429 54.398701 106 107 106 0
4.929990 -2.131888 54.384890 117 118 117 0
5.061917 -2.131334 54.370753 150 151 150 0
5.167693 -2.120079 54.083648 191 192 191 0
5.312031 -2.124812 54.204398 167 168 167 0
5.469851 -2.134576 54.453470 138 139 138 0
5.616649 -2.139676 54.583568 107 108 107 0
-3.471334 -0.650875 17.710886 149 150 149 0
-3.098606 -0.588343 16.009329 153 154 153 0
-3.083992 -0.593075 16.138103 153 154 153 0
-3.072796 -0.598597 16.288346 151 152 151 0
-3.066795 -0.605288 16.470435 148 149 148 0
-3.046932 -0.609386 16.581945 148 149 148 0
-3.025521 -0.613281 16.687928 147 148 147 0
-3.002428 -0.616937 16.787407 141 142 141 0
-2.975910 -0.619981 16.870236 136 137 136 0
-2.955780 -0.624460 16.992122 132 133 132 0
-3.313712 -0.710081 19.321935 126 127 126 0
-3.286921 -0.714548 19.443482 122 123 122 0
-3.259886 -0.719092 19.567140 118 119 118 0
-3.239617 -0.725287 19.735714 114 115 114 0
-3.220853 -0.732012 19.918693 110 111 110 0
-3.197580 -0.737903 20.078994 108 109 108 0
-3.177411 -0.744706 20.264103 104 105 104 0
-3.160522 -0.752505 20.476331 101 102 101 0
-3.149285 -0.761924 20.732618 96 97 96 0
-3.120765 -0.767401 20.881668 94 95 94 0
-3.084214 -0.771053 20.981047 91 92 91 0
-3.071311 -0.780842 21.247394 88 89 88 0
-3.047887 -0.788247 21.448889 85 86 85 0
-3.022465 -0.795386 21.643143 82 83 82 0
-2.997788 -0.802979 21.849766 81 82 81 0
-2.960854 -0.807506 21.972946 78 79 78 0
-2.949443 -0.819290 22.293595 77 78 77 0
-2.913953 -0.824704 22.440917 74 75 74 0
-3.218993 -0.928556 25.266817 73 74 73 0
-2.834908 -0.833797 22.688340 68 69 68 0
-2.820560 -0.846168 23.024979 69 70 69 0
-2.794904 -0.855583 23.281163 67 68 67 0
-1.595172 -0.771857 21.002918 69 70 69 0
-1.560888 -0.780444 21.236573 70 71 70 0
-1.729448 -0.894542 24.341282 69 70 69 0
3.881917 -2.007888 54.636413 94 95 94 0
4.005128 -2.002564 54.491541 111 112 111 0
4.147200 -2.006710 54.604341 127 128 127 0
4.290553 -2.011197 54.726443 111 112 111 0
4.412605 -2.005730 54.577675 125 126 125 0
4.534197 -2.000381 54.432136 118 119 118 0
4.678196 -2.004941 54.556226 109 110 109 0
4.798255 -1.999273 54.401982 121 122 121 0
4.906270 -1.989029 54.123226 202 203 202 0
4.988450 -1.969125 53.581634 247 248 247 0
5.118490 -1.968650 53.568707 251 252 251 0
5.258937 -1.972101 53.662623 199 200 199 0
5.456323 -1.996216 54.318795 148 149 148 0
5.616854 -2.006019 54.585557 112 113 112 0
5.748882 -2.005424 54.569360 94 95 94 0
-3.471334 -0.607483 17.710886 148 149 148 0
-3.098606 -0.549120 16.009329 148 149 148 0
-3.096491 -0.555780 16.203512 149 150 149 0
-3.072796 -0.558690 16.288346 150 151 150 0
-3.066795 -0.564936 16.470435 149 150 149 0
-3.053253 -0.569941 16.616343 148 149 148 0
-3.027726 -0.572813 16.700088 148 149 148 0
-3.005543 -0.576406 16.804828 145 146 145 0
-2.981822 -0.579799 16.903751 139 140 139 0
-2.956354 -0.582943 16.995423 135 136 135 0
-3.318527 -0.663705 19.350010 129 130 129 0
-3.288212 -0.667174 19.451124 124 125 124 0
-3.264260 -0.672054 19.593400 119 120 119 0
-3.246793 -0.678434 19.779430 115 116 115 0
-3.223368 -0.683745 19.934250 111 112 111 0
-3.206542 -0.690640 20.135275 109 110 109 0
-3.187446 -0.697254 20.328101 105 106 105 0
-3.165911 -0.703536 20.511245 101 102 101 0
-3.151802 -0.711697 20.749192 98 99 98 0
-3.126020 -0.717447 20.916828 95 96 95 0
-3.093820 -0.721891 21.046396 91 92 91 0
-3.093746 -0.734109 21.402598 88 89 88 0
-3.068347 -0.740635 21.592871 86 87 86 0
-3.048012 -0.748635 21.826081 85 86 85 0
-3.019997 -0.754999 22.011638 83 84 83 0
-3.000958 -0.763880 22.270564 81 82 81 0
-3.301227 -0.855874 24.952582 79 80 79 0
-2.937723 -0.776002 22.623975 77 78 77 0
-2.893211 -0.778942 22.709666 74 75 74 0
-3.202100 -0.879008 25.627051 71 72 71 0
-3.176499 -0.889420 25.930604 70 71 70 0
-2.807257 -0.802073 23.384063 68 69 68 0
-3.092928 -0.902104 26.300410 67 68 67 0
3.882188 -1.874160 54.640230 92 93 92 0
4.005131 -1.869061 54.491575 111 112 111 0
4.137365 -1.868487 54.474853 116 117 116 0
4.280455 -1.872699 54.597646 113 114 113 0
4.424138 -1.876907 54.720319 113 114 113 0
4.557153 -1.876475 54.707725 107 108 107 0
4.677945 -1.871178 54.553295 115 116 115 0
4.798826 -1.866210 54.408456 188 189 188 0
4.860163 -1.838981 53.614596 252 253 252 0
4.989594 -1.838271 53.593917 253 254 253 0
5.118473 -1.837401 53.568530 248 249 248 0
5.285332 -1.849866 53.931955 176 177 176 0
5.456297 -1.863126 54.318541 132 133 132 0
5.616419 -1.872140 54.581332 122 123 122 0
-3.471334 -0.564092 17.710886 148 149 148 0
-3.098606 -0.509897 16.009329 148 149 148 0
-3.095003 -0.515834 16.195723 148 149 148 0
-3.086700 -0.521131 16.362045 148 149 148 0
-3.076299 -0.526209 16.521476 148 149 148 0
-3.054067 -0.529372 16.620774 148 149 148 0
-3.034882 -0.533155 16.739561 148 149 148 0
-3.017767 -0.537411 16.873172 148 149 148 0
-2.992363 -0.540288 16.963507 143 144 143 0
-2.962479 -0.542426 17.030637 137 138 137 0
-2.937445 -0.545526 17.127961 130 131 130 0
-3.290582 -0.619965 19.465140 125 126 125 0
-3.266273 -0.624434 19.605478 122 123 122 0
-3.246710 -0.629959 19.778924 117 118 117 0
-3.228151 -0.635848 19.963829 113 114 113 0
-3.211824 -0.642365 20.168439 110 111 110 0
-3.190469 -0.648064 20.347376 106 107 106 0
-3.180183 -0.656228 20.603711 102 103 102 0
-3.163041 -0.663218 20.823179 99 100 99 0
-3.143064 -0.669833 21.030872 95 96 95 0
-3.109926 -0.673817 21.155957 92 93 92 0
-3.110739 -0.685417 21.520156 89 90 89 0
-3.090970 -0.692804 21.752075 88 89 88 0
-3.086762 -0.703998 22.103561 84 85 84 0
-3.032408 -0.703952 22.102098 84 85 84 0
-3.005039 -0.710282 22.300850 84 85 84 0
-2.971490 -0.715359 22.460244 81 82 81 0
-2.953886 -0.724538 22.748446 78 79 78 0
-2.913058 -0.728265 22.865448 75 76 75 0
-3.235615 -0.824765 25.895280 74 75 74 0
-2.865860 -0.745124 23.394779 71 72 71 0
-2.848581 -0.755746 23.728292 69 70 69 0
-2.827385 -0.765750 24.042389 67 68 67 0
4.147974 -1.739473 54.614534 97 98 97 0
4.281378 -1.739310 54.609414 95 96 95 0
4.424515 -1.742991 54.724985 97 98 97 0
4.545633 -1.738036 54.569418 110 111 110 0
4.667371 -1.733595 54.429983 169 170 169 0
4.730594 -1.708270 53.634854 248 249 248 0
4.860059 -1.707588 53.613443 254 255 254 0
4.989594 -1.706966 53.593917 254 255 254 0
5.129067 -1.709689 53.679403 229 230 229 0
5.324916 -1.730598 54.335877 138 139 138 0
5.470419 -1.734523 54.459121 95 96 95 0
5.616245 -1.738362 54.579643 102 103 102 0
-3.471334 -0.520700 17.710886 148 149 148 0
-3.098606 -0.470674 16.009329 148 149 148 0
-3.093527 -0.475927 16.188000 148 149 148 0
-3.090754 -0.481676 16.383534 148 149 148 0
-3.077453 -0.485914 16.527672 148 149 148 0
-3.059216 -0.489475 16.648795 148 149 148 0
-3.040965 -0.493129 16.773109 148 149 148 0
-3.019086 -0.496288 16.880550 148 149 148 0
-2.996926 -0.499488 16.989375 147 148 147 0
-2.972512 -0.502396 17.088312 141 142 141 0
-2.940168 -0.504029 17.143835 133 134 133 0
-3.294573 -0.572969 19.488748 127 128 127 0
-3.270324 -0.577116 19.629797 123 124 123 0
-3.249216 -0.581949 19.794190 118 119 118 0
-3.236028 -0.588369 20.012540 114 115 114 0
-3.223144 -0.595042 20.239523 111 112 111 0
-3.209406 -0.601764 20.468151 107 108 107 0
-3.196913 -0.608936 20.712099 103 104 103 0
-3.187137 -0.616865 20.981809 100 101 100 0
-3.171615 -0.623924 21.221911 96 97 96 0
-3.154408 -0.630882 21.458555 93 94 93 0
-3.124911 -0.635575 21.618200 92 93 92 0
-3.098569 -0.641083 21.805553 89 90 89 0
-3.082508 -0.648949 22.073094 87 88 87 0
-3.046133 -0.652743 22.202134 85 86 85 0
-3.028564 -0.660778 22.475427 85 86 85 0
-2.979725 -0.662161 22.522486 82 83 82 0
-3.295517 -0.746155 25.379413 79 80 79 0
-2.928723 -0.675859 22.988408 77 78 77 0
-2.915178 -0.685924 23.330758 75 76 75 0
-2.917078 -0.700099 23.812880 72 73 72 0
-2.890011 -0.707758 24.073399 70 71 70 0
-2.847886 -0.711972 24.216720 68 69 68 0
4.413444 -1.604889 54.588053 93 94 93 0
4.534766 -1.600506 54.438970 132 133 132 0
4.600122 -1.577185 53.645740 198 199 198 0
4.730647 -1.576882 53.635458 242 243 242 0
4.860152 -1.576266 53.614475 253 254 253 0
4.987595 -1.575030 53.572452 225 226 225 0
5.193378 -1.597962 54.352463 149 150 149 0
5.338297 -1.601489 54.472415 91 92 91 0
-3.471334 -0.477308 17.710886 148 149 148 0
-3.098606 -0.431451 16.009329 148 149 148 0
-3.092623 -0.436139 16.183271 148 149 148 0
-3.085734 -0.440819 16.356927 148 149 148 0
-3.077453 -0.445421 16.527672 148 149 148 0
-3.067437 -0.449891 16.693534 148 149 148 0
-3.051080 -0.453539 16.828904 148 149 148 0
-3.025459 -0.455891 16.916181 148 149 148 0
-3.001150 -0.458509 17.013323 148 149 148 0
-2.973611 -0.460700 17.094631 143 144 143 0
-2.945821 -0.462915 17.176801 137 138 137 0
-2.922568 -0.465917 17.288186 130 131 130 0
-3.276653 -0.530047 19.667784 124 125 124 0
-3.262493 -0.535633 19.875071 120 121 120 0
-3.244015 -0.540669 20.061934 116 117 116 0
-3.235053 -0.547471 20.314307 112 113 112 0
-3.223993 -0.554124 20.561177 109 110 109 0
-3.216598 -0.561628 20.839640 106 107 106 0
-3.206699 -0.568930 21.110590 102 103 102 0
-3.185317 -0.574401 21.313597 99 100 99 0
-3.154064 -0.578245 21.456214 94 95 94 0
-3.141751 -0.585750 21.734698 92 93 92 0
-3.129014 -0.593434 22.019802 90 91 90 0
-3.089158 -0.596153 22.120715 87 88 87 0
-3.070693 -0.603172 22.381141 85 86 85 0
-3.048652 -0.609730 22.624508 84 85 84 0
-2.996183 -0.610334 22.646885 82 83 82 0
-2.968616 -0.616128 22.861883 80 81 80 0
-2.954564 -0.625004 23.191238 79 80 79 0
-2.944348 -0.635056 23.564213 76 77 76 0
-2.922278 -0.642901 23.855327 74 75 74 0
-2.895674 -0.650049 24.120568 70 71 70 0
-2.858834 -0.655149 24.309812 71 72 71 0
-2.823052 -0.660714 24.516300 68 69 68 0
4.534994 -1.467204 54.441701 134 135 134 0
4.599842 -1.445665 53.642478 168 169 168 0
4.729512 -1.445129 53.622582 213 214 213 0
4.870157 -1.447885 53.724846 207 208 207 0
5.062204 -1.465375 54.373838 148 149 148 0
-3.471334 -0.433917 17.710886 148 149 148 0
-3.098606 -0.392229 16.009329 148 149 148 0
-3.088376 -0.395946 16.161044 148 149 148 0
-3.087157 -0.400929 16.364468 148 149 148 0
-3.075160 -0.404626 16.515359 148 149 148 0
-3.068565 -0.409142 16.699674 148 149 148 0
-3.056538 -0.413046 16.859010 148 149 148 0
-3.029674 -0.415024 16.939749 148 149 148 0
-3.007238 -0.417672 17.047834 148 149 148 0
-2.978845 -0.419556 17.124721 146 147 146 0
-2.954018 -0.422003 17.224593 139 140 139 0
-2.927016 -0.424205 17.314500 133 134 133 0
-3.280684 -0.482454 19.691984 127 128 127 0
-3.265617 -0.487405 19.894101 122 123 122 0
-3.262626 -0.494337 20.177030 118 119 118 0
-3.249410 -0.499909 20.404461 114 115 114 0
-3.242853 -0.506696 20.681458 111 112 111 0
-3.604960 -0.572216 23.355750 106 107 106 0
-3.214432 -0.518457 21.161499 103 104 103 0
-3.200591 -0.524687 21.415798 100 101 100 0
-3.545020 -0.590837 24.115779 97 98 97 0
-3.167749 -0.536907 21.914555 94 95 94 0
-3.129735 -0.539610 22.024880 91 92 91 0
-3.461500 -0.607281 24.786971 89 90 89 0
-3.071275 -0.548442 22.385386 86 87 86 0
-3.059694 -0.556308 22.706448 85 86 85 0
-3.024034 -0.560006 22.857403 83 84 83 0
-3.022681 -0.570317 23.278255 82 83 82 0
-2.994847 -0.575932 23.507433 79 80 79 0
-2.978277 -0.583976 23.835752 76 77 76 0
-2.937811 -0.587562 23.982132 73 74 73 0
-2.904926 -0.592842 24.197636 71 72 71 0
-2.861377 -0.596120 24.331439 71 72 71 0
-2.822554 -0.600543 24.511976 69 70 69 0
4.534776 -1.333758 54.439092 128 129 128 0
4.644966 -1.327133 54.168703 154 155 154 0
4.787864 -1.329962 54.284170 158 159 158 0
4.942849 -1.335905 54.526744 137 138 137 0
5.074512 -1.335398 54.506042 92 93 92 0
-3.471334 -0.390525 17.710886 148 149 148 0
-3.098606 -0.353006 16.009329 148 149 148 0
-3.087870 -0.356293 16.158400 148 149 148 0
-3.084181 -0.360489 16.348692 148 149 148 0
-3.077252 -0.364411 16.526596 148 149 148 0
-3.072818 -0.368738 16.722820 148 149 148 0
-3.054365 -0.371477 16.847021 148 149 148 0
-3.028440 -0.373369 16.932850 148 149 148 0
-3.004899 -0.375612 17.034576 148 149 148 0
-2.981243 -0.377904 17.138504 146 147 146 0
-2.956425 -0.380112 17.238629 140 141 140 0
-2.934380 -0.382745 17.358057 134 135 134 0
-3.289911 -0.435429 19.747362 128 129 128 0
-3.282188 -0.440891 19.995052 125 126 125 0
-3.276146 -0.446747 20.260642 120 121 120 0
-3.265377 -0.452129 20.504720 117 118 117 0
-3.257725 -0.458118 20.776306 112 113 112 0
-3.238266 -0.462609 20.980017 109 110 109 0
-3.234969 -0.469592 21.296704 105 106 105 0
-3.584494 -0.528860 23.984570 101 102 101 0
-3.560229 -0.534034 24.219242 99 100 99 0
-3.536402 -0.539451 24.464908 95 96 95 0
-3.504102 -0.543740 24.659407 93 94 93 0
-3.469025 -0.547741 24.840851 90 91 90 0
-3.446944 -0.553973 25.123496 89 90 89 0
-3.053299 -0.499631 22.658989 87 88 87 0
-3.031403 -0.505234 22.913098 86 87 86 0
-3.019264 -0.512705 23.251936 84 85 84 0
-3.014205 -0.521689 23.659379 79 80 79 0
-2.987472 -0.527201 23.909339 78 79 78 0
-2.940157 -0.529228 24.001282 76 77 76 0
-2.912456 -0.534941 24.260357 74 75 74 0
-2.870995 -0.538312 24.413225 72 73 72 0
-2.820211 -0.540040 24.491626 71 72 71 0
-2.786869 -0.545257 24.728207 68 69 68 0
4.534514 -1.200313 54.435944 110 111 110 0
4.667247 -1.200149 54.428541 141 142 141 0
4.810664 -1.202666 54.542674 132 133 132 0
4.942463 -1.202221 54.522484 101 102 101 0
-3.471334 -0.347133 17.710886 148 149 148 0
-3.098606 -0.313783 16.009329 148 149 148 0
-3.077070 -0.315597 16.101884 148 149 148 0
-3.079736 -0.319973 16.325129 148 149 148 0
-3.073934 -0.323572 16.508777 148 149 148 0
-3.070776 -0.327549 16.711708 148 149 148 0
-3.056470 -0.330429 16.858631 148 149 148 0
-3.029278 -0.331976 16.937532 148 149 148 0
-3.006258 -0.334029 17.042276 148 149 148 0
-2.983222 -0.336138 17.149884 146 147 146 0
-2.954634 -0.337672 17.228184 140 141 140 0
-2.936824 -0.340501 17.372519 135 136 135 0
-2.928929 -0.344580 17.580606 132 133 132 0
-3.299257 -0.393941 20.099035 126 127 126 0
-3.291274 -0.398942 20.354199 122 123 122 0
-3.288341 -0.404719 20.648925 117 118 117 0
-3.282760 -0.410345 20.935966 114 115 114 0
-3.265241 -0.414634 21.154787 111 112 111 0
-3.253216 -0.419770 21.416825 107 108 107 0
-3.604134 -0.472673 24.115986 103 104 103 0
-3.573343 -0.476446 24.308456 100 101 100 0
-3.543719 -0.480504 24.515525 96 97 96 0
-3.512351 -0.484462 24.717463 93 94 93 0
-3.480580 -0.488503 24.923597 90 91 90 0
-3.458409 -0.494058 25.207060 88 89 88 0
-3.092489 -0.449817 22.949825 86 87 86 0
-3.072615 -0.455202 23.224603 84 85 84 0
-3.034269 -0.458003 23.367495 82 83 82 0
-3.009007 -0.462924 23.618583 80 81 80 0
-2.972306 -0.466244 23.787966 78 79 78 0
-2.938021 -0.470083 23.983844 76 77 76 0
-2.909865 -0.475080 24.238777 74 75 74 0
-2.873749 -0.478958 24.436643 73 74 73 0
-2.830062 -0.481713 24.577177 72 73 72 0
-2.789774 -0.485178 24.753980 69 70 69 0
-2.744579 -0.487925 24.894140 67 68 67 0
4.678203 -1.069303 54.556299 108 109 108 0
4.810292 -1.068954 54.538460 99 100 99 0
-3.471334 -0.303742 17.710886 148 149 148 0
-3.098606 -0.274560 16.009329 148 149 148 0
-3.073263 -0.275806 16.081962 148 149 148 0
-3.078314 -0.279847 16.317595 148 149 148 0
-3.071776 -0.282927 16.497185 148 149 148 0
-3.064664 -0.286035 16.678443 148 149 148 0
-3.050138 -0.288527 16.823704 148 149 148 0
-3.029381 -0.290489 16.938109 148 149 148 0
-3.007432 -0.292389 17.048936 148 149 148 0
-2.982768 -0.294076 17.147272 146 147 146 0
-2.960562 -0.296056 17.262751 140 141 140 0
-2.943769 -0.298643 17.413600 136 137 136 0
-2.932873 -0.301913 17.604279 132 133 132 0
-2.931144 -0.306239 17.856496 127 128 127 0
-3.308457 -0.350897 20.460463 123 124 123 0
-3.307686 -0.356212 20.770398 118 119 118 0
-3.301320 -0.361082 21.054336 116 117 116 0
-3.282803 -0.364756 21.268567 112 113 112 0
-3.260799 -0.368155 21.466746 109 110 109 0
-3.233502 -0.371058 21.636009 105 106 105 0
-3.583790 -0.418109 24.379524 101 102 101 0
-3.551069 -0.421313 24.566370 97 98 97 0
-3.522369 -0.425114 24.787961 94 95 94 0
-3.512922 -0.431411 25.155187 91 92 91 0
-3.481073 -0.435134 25.372249 89 90 89 0
-3.104653 -0.395138 23.040096 89 90 89 0
-3.089643 -0.400509 23.353307 89 90 89 0
-3.063906 -0.404667 23.595736 83 84 83 0
-2.691052 -0.362257 21.122856 79 80 79 0
-2.657857 -0.364804 21.271365 80 81 80 0
-2.626897 -0.367766 21.444058 77 78 77 0
-2.913678 -0.416240 24.270533 75 76 75 0
-2.869920 -0.418530 24.404083 74 75 74 0
-2.830297 -0.421534 24.579217 71 72 71 0
-2.792081 -0.424882 24.774456 69 70 69 0
-3.458934 -0.259420 17.647624 148 149 148 0
-3.098606 -0.235337 16.009329 148 149 148 0
-3.064567 -0.235736 16.036459 148 149 148 0
-3.078052 -0.239848 16.316205 148 149 148 0
-3.070321 -0.242394 16.489370 148 149 148 0
-3.062689 -0.245015 16.667694 148 149 148 0
-3.049790 -0.247280 16.821786 148 149 148 0
-3.030609 -0.249091 16.944974 148 149 148 0
-3.005599 -0.250467 17.038543 148 149 148 0
-2.984967 -0.252251 17.159911 144 145 144 0
-2.963412 -0.254007 17.279368 140 141 140 0
-2.943566 -0.255962 17.412398 136 137 136 0
-2.943059 -0.259682 17.665419 132 133 132 0
-2.944139 -0.263654 17.935665 128 129 128 0
-2.943570 -0.267597 18.203894 123 124 123 0
-3.318374 -0.306311 20.837516 119 120 119 0
-3.309873 -0.310301 21.108883 117 118 117 0
-3.290104 -0.313343 21.315864 114 115 114 0
-3.267738 -0.316233 21.512431 110 111 110 0
-3.240801 -0.318767 21.684852 106 107 106 0
-3.219360 -0.321936 21.900407 102 103 102 0
-3.195132 -0.324929 22.103992 99 100 99 0
-3.533085 -0.365492 24.863371 96 97 96 0
-3.516319 -0.370139 25.179512 93 94 93 0
-3.508670 -0.375929 25.573397 90 91 90 0
-3.122300 -0.340615 23.171057 88 89 88 0
-3.091518 -0.343502 23.367483 89 90 89 0
-3.065852 -0.347078 23.610721 84 85 84 0
-2.696013 -0.311078 21.161798 81 82 81 0
-2.658501 -0.312765 21.276519 80 81 80 0
-2.628643 -0.315437 21.458307 79 80 79 0
-2.596950 -0.317994 21.632233 75 76 75 0
-2.872945 -0.359118 24.429803 73 74 73 0
-2.522050 -0.321964 21.902303 71 72 71 0
-2.793917 -0.364424 24.790747 69 70 69 0
-2.756307 -0.367508 25.000517 68 69 68 0
-3.450761 -0.215673 17.605924 148 149 148 0
-3.446895 -0.218158 17.808810 148 149 148 0
-3.064567 -0.196447 16.036459 148 149 148 0
-3.065870 -0.199082 16.251628 148 149 148 0
-3.066386 -0.201736 16.468239 148 149 148 0
-3.056866 -0.203791 16.636008 148 149 148 0
-3.043670 -0.205653 16.788032 148 149 148 0
-3.034761 -0.207860 16.968191 148 149 148 0
-3.010753 -0.209080 17.067759 147 148 147 0
-2.991228 -0.210650 17.195907 142 143 142 0
-2.972972 -0.212355 17.335114 140 141 140 0
-2.955908 -0.214196 17.485408 137 138 137 0
-2.951907 -0.217052 17.718531 134 135 134 0
-2.949280 -0.220096 17.966981 128 129 128 0
-3.332311 -0.252448 20.607982 125 126 125 0
-3.332745 -0.256365 20.927755 120 121 120 0
-3.317870 -0.259209 21.159884 117 118 117 0
-3.292469 -0.261307 21.331188 115 116 115 0
-3.265402 -0.263339 21.497048 112 113 112 0
-3.241671 -0.265711 21.690674 109 110 109 0
-3.226295 -0.268858 21.947587 105 106 105 0
-3.205602 -0.271661 22.176427 101 102 101 0
-3.189095 -0.274922 22.442611 97 98 97 0
-3.539486 -0.310481 25.345405 93 94 93 0
-3.520879 -0.314364 25.662384 91 92 91 0
-3.486304 -0.316937 25.872385 88 89 88 0
-3.087582 -0.285887 23.337730 85 86 85 0
-3.060673 -0.288743 23.570836 85 86 85 0
-2.692889 -0.258932 21.137276 82 83 82 0
-2.659224 -0.260708 21.282306 81 82 81 0
-2.629469 -0.262947 21.465055 80 81 80 0
-2.594295 -0.264724 21.610122 76 77 76 0
-2.879591 -0.299957 24.486317 74 75 74 0
-2.836579 -0.301764 24.633774 73 74 73 0
-2.795120 -0.303817 24.801420 70 71 70 0
-2.753387 -0.305932 24.974031 68 69 68 0
-3.442649 -0.172132 17.564538 148 149 148 0
-3.434946 -0.173921 17.747075 148 149 148 0
-3.064567 -0.157157 16.036459 148 149 148 0
-3.048841 -0.158381 16.161360 148 149 148 0
-3.062431 -0.161181 16.447000 148 149 148 0
-3.057131 -0.163047 16.637446 148 149 148 0
-3.038034 -0.164218 16.756946 148 149 148 0
-3.023640 -0.165679 16.906009 148 149 148 0
-3.009418 -0.167190 17.060194 145 146 145 0
-2.996306 -0.168806 17.225096 141 142 141 0
-2.981542 -0.170374 17.385084 140 141 140 0
-2.967600 -0.172035 17.554567 138 139 138 0
-2.963618 -0.174330 17.788825 133 134 133 0
-2.960365 -0.176738 18.034509 130 131 130 0
-2.960339 -0.179414 18.307601 125 126 125 0
-2.965934 -0.182519 18.624391 122 123 122 0
-3.316897 -0.207306 21.153680 118 119 118 0
-2.928706 -0.185950 18.974451 117 118 117 0
-2.908430 -0.187641 19.147002 114 115 114 0
-2.889029 -0.189445 19.331072 111 112 111 0
-2.874396 -0.191626 19.553715 107 108 107 0
-2.859791 -0.193884 19.784096 104 105 104 0
-2.844968 -0.196205 20.020889 100 101 100 0
-3.179118 -0.223096 22.764901 96 97 96 0
-3.152597 -0.225186 22.978116 92 93 92 0
-3.480473 -0.253125 25.829113 89 90 89 0
-3.093597 -0.229155 23.383195 85 86 85 0
-3.073380 -0.231953 23.668694 83 84 83 0
-2.693568 -0.207198 21.142602 82 83 82 0
-2.660499 -0.208667 21.292506 79 80 79 0
-2.630341 -0.210427 21.472174 79 80 79 0
-2.593193 -0.211689 21.600945 76 77 76 0
-2.879952 -0.239996 24.489386 75 76 75 0
-2.838035 -0.241535 24.646416 73 74 73 0
-2.805485 -0.243955 24.893388 69 70 69 0
-2.759254 -0.245267 25.027245 68 69 68 0
-3.436006 -0.128850 17.530642 148 149 148 0
-3.420387 -0.129888 17.671853 148 149 148 0
-3.425215 -0.131739 17.923679 148 149 148 0
-3.031686 -0.118118 16.070424 148 149 148 0
-3.046988 -0.120276 16.364059 148 149 148 0
-3.048620 -0.121945 16.591131 148 149 148 0
-3.039176 -0.123210 16.763242 148 149 148 0
-3.029567 -0.124503 16.939151 147 148 147 0
-3.011313 -0.125471 17.070934 144 145 144 0
-2.998408 -0.126693 17.237186 142 143 142 0
-2.984473 -0.127906 17.402175 140 141 140 0
-2.971633 -0.129201 17.578424 138 139 138 0
-2.970791 -0.131064 17.831876 134 135 134 0
-2.975971 -0.133252 18.129583 131 132 131 0
-2.973755 -0.135171 18.390570 127 128 127 0
-2.967340 -0.136954 18.633219 123 124 123 0
-2.949584 -0.138262 18.811123 121 122 121 0
-2.926386 -0.139352 18.959416 118 119 118 0
-2.905703 -0.140599 19.129052 116 117 116 0
-2.893129 -0.142285 19.358505 113 114 113 0
-2.881714 -0.144086 19.603495 109 110 109 0
-2.868454 -0.145854 19.844025 106 107 106 0
-2.851966 -0.147515 20.070135 102 103 102 0
-2.838321 -0.149385 20.324530 99 100 99 0
-3.170307 -0.169838 23.107195 94 95 94 0
-3.133389 -0.170912 23.253353 90 91 90 0
-3.094133 -0.171896 23.387249 87 88 87 0
-3.063059 -0.173381 23.589213 84 85 84 0
-2.697322 -0.155615 21.172071 83 84 83 0
-2.664779 -0.156752 21.326767 81 82 81 0
-2.629485 -0.157769 21.465180 80 81 80 0
-2.592053 -0.158697 21.591449 76 77 76 0
-2.878287 -0.179893 24.475232 74 75 74 0
-2.841740 -0.181388 24.678591 72 73 72 0
-2.807196 -0.183078 24.908571 70 71 70 0
-2.764971 -0.184331 25.079102 68 69 68 0
-2.724484 -0.185760 25.273504 68 69 68 0
-3.428911 -0.085723 17.494446 148 149 148 0
-3.417570 -0.086521 17.657297 148 149 148 0
-3.411669 -0.087479 17.852795 148 149 148 0
-3.415401 -0.088712 18.104434 148 149 148 0
-3.025841 -0.079627 16.250490 148 149 148 0
-3.044132 -0.081177 16.566703 148 149 148 0
-3.036241 -0.082061 16.747054 148 149 148 0
-3.025096 -0.082879 16.914153 147 148 147 0
-3.011814 -0.083661 17.073774 143 144 143 0
-2.996387 -0.084405 17.225563 142 143 142 0
-2.984473 -0.085271 17.402175 140 141 140 0
-2.978702 -0.086339 17.620241 137 138 137 0
-2.978503 -0.087603 17.878169 134 135 134 0
-2.987882 -0.089190 18.202142 132 133 132 0
-2.976848 -0.090208 18.409696 128 129 128 0
-2.968733 -0.091346 18.641965 125 126 125 0
-2.947295 -0.092103 18.796522 124 125 124 0
-2.923275 -0.092802 18.939260 121 122 121 0
-2.907881 -0.093803 19.143389 119 120 119 0
-2.898714 -0.095040 19.395876 115 116 115 0
-2.891066 -0.096369 19.667115 111 112 111 0
-2.878265 -0.097568 19.911900 106 107 106 0
-2.861729 -0.098680 20.138840 104 105 104 0
-2.850037 -0.100001 20.408426 102 103 102 0
-2.824237 -0.100866 20.584818 97 98 97 0
-3.140234 -0.114190 23.304150 91 92 91 0
-3.097256 -0.114713 23.410855 88 89 88 0
-3.062386 -0.115562 23.584029 85 86 85 0
-2.698262 -0.103779 21.179448 84 85 84 0
-2.666799 -0.104580 21.342927 82 83 82 0
-2.629133 -0.105165 21.462310 80 81 80 0
-2.595797 -0.105951 21.622633 78 79 78 0
-2.567928 -0.106997 21.836126 76 77 76 0
-2.526225 -0.107499 21.938557 74 75 74 0
-2.804292 -0.121926 24.882803 70 71 70 0
-2.762441 -0.122775 25.056152 68 69 68 0
-2.727381 -0.123972 25.300383 67 68 67 0
-3.421565 -0.042770 17.456966 148 149 148 0
-3.408960 -0.043151 17.612811 148 149 148 0
-3.405386 -0.043659 17.819917 148 149 148 0
-3.400391 -0.044161 18.024866 148 149 148 0
-3.412955 -0.044907 18.329510 148 149 148 0
-3.029922 -0.040399 16.489371 148 149 148 0
-3.031893 -0.040972 16.723072 148 149 148 0
-3.023697 -0.041421 16.906329 146 147 146 0
-3.008500 -0.041785 17.054988 143 144 143 0
-2.990736 -0.042123 17.193078 142 143 142 0
-2.984158 -0.042631 17.400337 140 141 140 0
-2.978724 -0.043170 17.620373 137 138 137 0
-2.983987 -0.043882 17.911089 134 135 134 0
-2.996911 -0.044730 18.257151 132 133 132 0
-2.980168 -0.045154 18.430231 129 130 129 0
-2.968056 -0.045662 18.637714 127 128 127 0
-2.948824 -0.046075 18.806273 125 126 125 0
-2.927915 -0.046475 18.969325 124 125 124 0
-2.913057 -0.046985 19.177465 122 123 122 0
-2.903769 -0.047603 19.429701 118 119 118 0
-2.901460 -0.048358 19.737824 114 115 114 0
-2.541318 -0.043073 17.580890 112 113 112 0
-2.529124 -0.043606 17.798196 107 108 107 0
-2.517723 -0.044171 18.028807 104 105 104 0
-2.825811 -0.050461 20.596291 99 100 99 0
-2.792149 -0.050766 20.720957 93 94 93 0
-3.098418 -0.057378 23.419638 89 90 89 0
-3.067915 -0.057885 23.626608 86 87 86 0
-3.030876 -0.058286 23.790239 83 84 83 0
-2.663899 -0.052233 21.319721 81 82 81 0
-2.631572 -0.052631 21.482219 79 80 79 0
-2.598119 -0.053023 21.641972 77 78 77 0
-2.566933 -0.053478 21.827665 76 77 76 0
-2.843566 -0.060501 24.694454 74 75 74 0
-2.804640 -0.060970 24.885896 72 73 72 0
-2.763355 -0.061408 25.064443 69 70 69 0
-3.413766 0.000000 17.417173 148 149 148 0
-3.398992 0.000000 17.561312 148 149 148 0
-3.396827 0.000000 17.775127 148 149 148 0
-3.383413 0.000000 17.934868 148 149 148 0
-3.392863 0.000000 18.221608 148 149 148 0
-3.016146 0.000000 16.414398 148 149 148 0
-3.037961 0.000000 16.756539 148 149 148 0
-3.026331 0.000000 16.921057 147 148 147 0
-3.010840 0.000000 17.068254 144 145 144 0
-2.994547 0.000000 17.214989 142 143 142 0
-2.984158 0.000000 17.400337 140 141 140 0
-2.978810 0.000000 17.620881 137 138 137 0
-2.984513 0.000000 17.914246 135 136 135 0
-2.997370 0.000000 18.259943 131 132 131 0
-2.980791 0.000000 18.434083 129 130 129 0
-2.964392 0.000000 18.614707 127 128 127 0
-2.948149 0.000000 18.801973 126 127 126 0
-2.926848 0.000000 18.962413 124 125 124 0
-2.923204 0.000000 19.244268 123 124 123 0
-2.913717 0.000000 19.496267 121 122 121 0
-2.909789 0.000000 19.794486 115 116 115 0
-2.548507 0.000000 17.630627 113 114 113 0
-2.529124 0.000000 17.798196 110 111 110 0
-2.517723 0.000000 18.028807 107 108 107 0
-2.504732 0.000000 18.256063 101 102 101 0
-2.801803 0.000000 20.792600 95 96 95 0
-2.766893 0.000000 20.913782 90 91 90 0
-2.732183 0.000000 21.041069 87 88 87 0
-3.033251 0.000000 23.808877 84 85 84 0
-2.995693 0.000000 23.975133 81 82 81 0
-2.634895 0.000000 21.509345 80 81 80 0
-2.601752 0.000000 21.672237 78 79 78 0
-2.884427 0.000000 24.527442 76 77 76 0
-2.847866 0.000000 24.731797 74 75 74 0
-2.809133 0.000000 24.925758 71 72 71 0
-2.770165 0.000000 25.126212 70 71 70 0
-3.406923 0.042587 17.382260 148 149 148 0
-3.397752 0.043010 17.554907 148 149 148 0
-3.384700 0.043394 17.711670 148 149 148 0
-3.378561 0.043877 17.909147 148 149 148 0
-3.375459 0.044414 18.128137 148 149 148 0
-3.019478 0.040260 16.432534 148 149 148 0
-3.037812 0.041052 16.755719 148 149 148 0
-3.030035 0.041507 16.941764 147 148 147 0
-3.014486 0.041868 17.088922 144 145 144 0
-2.998053 0.042226 17.235145 141 142 141 0
-2.982081 0.042601 17.388229 139 140 139 0
-2.978532 0.043167 17.619237 137 138 137 0
-2.992124 0.044002 17.959930 134 135 134 0
-3.001487 0.044798 18.285029 132 133 132 0
-2.980711 0.045162 18.433587 130 131 130 0
-2.969423 0.045683 18.646300 128 129 128 0
-2.949604 0.046088 18.811252 127 128 127 0
-2.933892 0.046570 19.008049 126 127 126 0
-2.926541 0.047202 19.266232 123 124 123 0
-2.918837 0.047850 19.530527 122 123 122 0
-2.916873 0.048615 19.842674 118 119 118 0
-2.549546 0.043213 17.637816 113 114 113 0
-2.529124 0.043606 17.798196 111 112 111 0
-2.517723 0.044171 18.028807 109 110 109 0
-2.504732 0.044727 18.256063 106 107 106 0
-2.482340 0.045133 18.421821 98 99 98 0
-2.770484 0.051305 20.940922 92 93 92 0
-2.742921 0.051753 21.123763 88 89 88 0
-3.039545 0.058453 23.858282 87 88 87 0
-2.999653 0.058817 24.006825 83 84 83 0
-2.638483 0.052770 21.538641 81 82 81 0
-2.605652 0.053177 21.704720 79 80 79 0
-2.569497 0.053531 21.849462 77 78 77 0
-2.540142 0.054046 22.059422 74 75 74 0
-2.812605 0.061144 24.956567 72 73 72 0
-2.770476 0.061566 25.129031 71 72 71 0
-3.403199 0.085080 17.363259 148 149 148 0
-3.390430 0.085834 17.517074 148 149 148 0
-3.380369 0.086676 17.689006 148 149 148 0
-3.370619 0.087549 17.867048 148 149 148 0
-3.368734 0.088651 18.092021 148 149 148 0
-3.007668 0.080204 16.368261 148 149 148 0
-3.035204 0.082033 16.741336 148 149 148 0
-3.026832 0.082927 16.923856 148 149 148 0
-3.011264 0.083646 17.070655 145 146 145 0
-2.997866 0.084447 17.234068 142 143 142 0
-2.982923 0.085226 17.393135 139 140 139 0
-2.985874 0.086547 17.662670 136 137 136 0
-2.995556 0.088105 17.980526 134 135 134 0
-3.006909 0.089758 18.318055 131 132 131 0
-2.985440 0.090468 18.462834 130 131 130 0
-2.967867 0.091319 18.636529 128 129 128 0
-2.953529 0.092298 18.836282 128 129 128 0
-2.937392 0.093251 19.030722 128 129 128 0
-3.294523 0.106275 21.688762 126 127 126 0
-3.287160 0.107776 21.995051 123 124 123 0
-2.925971 0.097532 19.904566 120 121 120 0
-2.549546 0.086425 17.637816 117 118 117 0
-2.529124 0.087211 17.798196 115 116 115 0
-2.517723 0.088341 18.028807 113 114 113 0
-2.504732 0.089455 18.256063 108 109 108 0
-2.171780 0.078974 16.117109 101 102 101 0
-2.459634 0.091098 18.591338 95 96 95 0
-2.748555 0.103719 21.167158 89 90 89 0
-2.712009 0.104308 21.287352 86 87 86 0
-3.003671 0.117791 24.038982 83 84 83 0
-2.963011 0.118520 24.187844 84 85 84 0
-2.606905 0.106404 21.715164 79 80 79 0
-2.887199 0.120300 24.551016 77 78 77 0
-2.853103 0.121409 24.777274 76 77 76 0
-2.813735 0.122336 24.966591 72 73 72 0
-2.777462 0.123443 25.192402 71 72 71 0
-2.739804 0.124537 25.415626 68 69 68 0
-3.398506 0.127444 17.339315 148 149 148 0
-3.393813 0.128879 17.534556 148 149 148 0
-3.381201 0.130046 17.693358 148 149 148 0
-3.371348 0.131351 17.870915 148 149 148 0
-3.369005 0.132987 18.093476 148 149 148 0
-2.999470 0.119979 16.323648 148 149 148 0
-3.028086 0.122760 16.702071 148 149 148 0
-3.023697 0.124262 16.906329 148 149 148 0
-3.009508 0.125396 17.060700 145 146 145 0
-2.996423 0.126609 17.225770 142 143 142 0
-2.983387 0.127859 17.395840 139 140 139 0
-2.983045 0.129698 17.645934 136 137 136 0
-2.999960 0.132351 18.006965 133 134 133 0
-3.001563 0.134398 18.285486 131 132 131 0
-2.985254 0.135693 18.461680 130 131 130 0
-2.970596 0.137104 18.653663 128 129 128 0
-2.952198 0.138384 18.827794 128 129 128 0
-2.941262 0.140060 19.055793 128 129 128 0
-3.301878 0.159768 21.737183 127 128 127 0
-3.292177 0.161910 22.028618 124 125 124 0
-2.575308 0.128765 17.519103 122 123 122 0
-2.561090 0.130225 17.717677 119 120 119 0
-2.529124 0.130817 17.798196 116 117 116 0
-2.517723 0.132512 18.028807 114 115 114 0
-2.504732 0.134182 18.256063 110 111 110 0
-2.171416 0.118441 16.114408 102 103 102 0
-2.455046 0.136391 18.556656 97 98 97 0
-2.436570 0.137919 18.764498 91 92 91 0
-2.720318 0.156941 21.352577 87 88 87 0
-2.681467 0.157733 21.460318 85 86 85 0
-2.970576 0.178235 24.249603 81 82 81 0
-2.930590 0.179424 24.411412 78 79 78 0
-2.576004 0.161000 21.904792 76 77 76 0
-2.543107 0.162326 22.085166 75 76 75 0
-2.818276 0.183801 25.006886 72 73 72 0
-2.782024 0.185468 25.233774 70 71 70 0
-2.746935 0.187291 25.481768 68 69 68 0
-3.400715 0.170036 17.350589 148 149 148 0
-3.394635 0.171880 17.538800 148 149 148 0
-3.379626 0.173314 17.685116 148 149 148 0
-3.375504 0.175351 17.892944 148 149 148 0
-3.368247 0.177276 18.089405 148 149 148 0
-2.996806 0.159830 16.309150 148 149 148 0
-3.022763 0.163393 16.672714 148 149 148 0
-3.020089 0.165484 16.886157 148 149 148 0
-3.010733 0.167263 17.067645 145 146 145 0
-2.996938 0.168842 17.228733 141 142 141 0
-2.984750 0.170557 17.403792 139 140 139 0
-2.989019 0.173276 17.681270 136 137 136 0
-2.999385 0.176434 18.003512 134 135 134 0
-3.006437 0.179489 18.315182 132 133 132 0
-2.985254 0.180924 18.461680 129 130 129 0
-2.974215 0.183029 18.676388 126 127 126 0
-2.956105 0.184757 18.852714 126 127 126 0
-2.948239 0.187190 19.100997 127 128 127 0
-3.306497 0.213322 21.767593 127 128 127 0
-2.935509 0.192492 19.642081 124 125 124 0
-2.576934 0.171796 17.530165 123 124 123 0
-2.561090 0.173633 17.717677 118 119 118 0
-2.529124 0.174422 17.798196 118 119 118 0
-2.517723 0.176682 18.028807 118 119 118 0
-2.504732 0.178909 18.256063 110 111 110 0
-2.169176 0.157758 16.097785 103 104 103 0
-2.455973 0.181924 18.563669 98 99 98 0
-2.435312 0.183797 18.754810 92 93 92 0
-2.407262 0.185174 18.895305 88 89 88 0
-2.685956 0.210663 21.496244 85 86 85 0
-2.972838 0.237827 24.268065 82 83 82 0
-2.930943 0.239261 24.414350 81 82 81 0
-2.892802 0.241067 24.598655 76 77 76 0
-2.544856 0.216583 22.100352 74 75 74 0
-2.824722 0.245628 25.064085 73 74 73 0
-2.787020 0.247735 25.279090 71 72 71 0
-2.749518 0.249956 25.505731 69 70 69 0
-3.399831 0.212489 17.346075 148 149 148 0
-3.391492 0.214651 17.522564 148 149 148 0
-3.379665 0.216645 17.685320 148 149 148 0
-3.373522 0.219060 17.882441 148 149 148 0
-3.365781 0.221433 18.076159 148 149 148 0
-2.989204 0.199280 16.267777 148 149 148 0
-3.012426 0.203542 16.615695 148 149 148 0
-3.019061 0.206785 16.880406 148 149 148 0
-3.011264 0.209116 17.070655 145 146 145 0
-2.997121 0.211065 17.229785 141 142 141 0
-2.984292 0.213164 17.401122 139 140 139 0
-2.987859 0.216512 17.674411 136 137 136 0
-3.004391 0.220911 18.033557 134 135 134 0
-3.006599 0.224373 18.316169 131 132 131 0
-2.985254 0.226156 18.461680 129 130 129 0
-2.973911 0.228762 18.674479 126 127 126 0
-2.961607 0.231376 18.887798 126 127 126 0
-2.949716 0.234104 19.110569 126 127 126 0
-3.306115 0.266622 21.765076 126 127 126 0
-2.928405 0.240033 19.594544 125 126 125 0
-2.579031 0.214919 17.544426 120 121 120 0
-2.562456 0.217157 17.727123 117 118 117 0
-2.529124 0.218028 17.798196 117 118 117 0
-2.517723 0.220853 18.028807 114 115 114 0
-2.504732 0.223637 18.256063 111 112 111 0
-2.166173 0.196925 16.075496 103 104 103 0
-2.146093 0.198712 16.221411 99 100 99 0
-2.428967 0.229148 18.705945 93 94 93 0
-2.407776 0.231517 18.899340 88 89 88 0
-2.688530 0.263581 21.516845 85 86 85 0
-2.652132 0.265213 21.650056 83 84 83 0
-2.936264 0.299619 24.458676 80 81 80 0
-2.895645 0.301630 24.622833 79 80 79 0
-2.546480 0.270902 22.114458 76 77 76 0
-2.825936 0.307167 25.074855 73 74 73 0
-2.791369 0.310152 25.318542 70 71 70 0
-2.753412 0.312888 25.541855 68 69 68 0
-3.392545 0.254441 17.308904 148 149 148 0
-3.388313 0.257340 17.506139 148 149 148 0
-3.378200 0.259862 17.677656 148 149 148 0
-3.372128 0.262763 17.875050 148 149 148 0
-3.366391 0.265768 18.079438 148 149 148 0
-2.975357 0.238029 16.192419 148 149 148 0
-3.012325 0.244243 16.615140 148 149 148 0
-3.016201 0.247907 16.864419 148 149 148 0
-3.009606 0.250801 17.061259 144 145 144 0
-2.992091 0.252853 17.200870 141 142 141 0
-2.984292 0.255796 17.401122 138 139 138 0
-2.983117 0.259401 17.646356 136 137 136 0
-3.004924 0.265140 18.036758 134 135 134 0
-3.006212 0.269213 18.313811 132 133 132 0
-2.989353 0.271759 18.487030 128 129 128 0
-2.974765 0.274594 18.679842 126 127 126 0
-2.959135 0.277419 18.872032 127 128 127 0
-2.953396 0.281276 19.134408 127 128 127 0
-3.311114 0.320430 21.797983 128 129 128 0
-2.925020 0.287707 19.571895 128 129 128 0
-2.573656 0.257366 17.507867 124 125 124 0
-2.559743 0.260313 17.708358 115 116 115 0
-2.529124 0.261633 17.798196 114 115 114 0
-2.517723 0.265023 18.028807 113 114 113 0
-2.504732 0.268364 18.256063 110 111 110 0
-2.158003 0.235418 16.014864 107 108 107 0
-2.142798 0.238089 16.196507 100 101 100 0
-2.432249 0.275349 18.731223 93 94 93 0
-2.409544 0.278024 18.913216 88 89 88 0
-2.379935 0.279992 19.047102 85 86 85 0
-2.658130 0.318976 21.699020 83 84 83 0
-2.938590 0.359827 24.478050 80 81 80 0
-2.900275 0.362534 24.662201 78 79 78 0
-2.862256 0.365394 24.856760 77 78 77 0
-2.829611 0.369080 25.107461 74 75 74 0
-2.795057 0.372674 25.351994 72 73 72 0
-2.756229 0.375849 25.567986 68 69 68 0
-3.391837 0.296786 17.305292 148 149 148 0
-3.389399 0.300326 17.511748 148 149 148 0
-3.377727 0.303129 17.675179 148 149 148 0
-3.368716 0.306247 17.856964 148 149 148 0
-3.365661 0.309995 18.075515 148 149 148 0
-2.977750 0.277923 16.205442 148 149 148 0
-3.012951 0.285009 16.618593 148 149 148 0
-3.013930 0.289007 16.851721 147 148 147 0
-3.012370 0.292869 17.076928 144 145 144 0
-2.994384 0.295221 17.214047 141 142 141 0
-2.982002 0.298200 17.387767 139 140 139 0
-2.983710 0.302695 17.649867 137 138 137 0
-3.010553 0.309910 18.070545 134 135 134 0
-3.006518 0.314114 18.315676 131 132 131 0
-2.989353 0.317053 18.487030 128 129 128 0
-2.976290 0.320524 18.689420 126 127 126 0
-2.958670 0.323605 18.869072 125 126 125 0
-2.947332 0.327481 19.095122 125 126 125 0
-3.312069 0.373943 21.804275 127 128 127 0
-2.923471 0.335480 19.561533 129 130 129 0
-2.587125 0.301831 17.599489 125 126 125 0
-2.559743 0.303698 17.708358 117 118 117 0
-2.529124 0.305239 17.798196 113 114 113 0
-2.517723 0.309194 18.028807 112 113 112 0
-2.504732 0.313091 18.256063 110 111 110 0
-2.160028 0.274913 16.029895 106 107 106 0
-2.448768 0.317433 18.509204 101 102 101 0
-2.426415 0.320470 18.686288 95 96 95 0
-2.410602 0.324504 18.921521 89 90 89 0
-2.382165 0.326964 19.064948 85 86 85 0
-2.659825 0.372376 21.712858 83 84 83 0
