ply
format ascii 1.0
element vertex 1126
property float x
property float y
property float z
property uchar red
property uchar green
property uchar blue
property uchar alpha
end_header
-0.497007 -3.379648 40.572000 148 149 148 0
-0.401447 -3.412301 40.964000 148 149 148 0
-0.302526 -3.428628 41.160000 148 149 148 0
-0.168070 -2.857190 34.300000 148 149 148 0
-0.101322 -3.444955 41.356000 148 149 148 0
0.000000 -3.444955 41.356000 148 149 148 0
0.101802 -3.461282 41.552000 148 149 148 0
0.203605 -3.461282 41.552000 148 149 148 0
0.305407 -3.461282 41.552000 148 149 148 0
0.409130 -3.477608 41.748000 148 149 148 0
0.511413 -3.477608 41.748000 148 149 148 0
0.610814 -3.461282 41.552000 148 149 148 0
0.715978 -3.477608 41.748000 148 149 148 0
0.818261 -3.477608 41.748000 148 149 148 0
0.920543 -3.477608 41.748000 148 149 148 0
1.042034 -3.542916 42.532000 148 149 148 0
1.156802 -3.575569 42.924000 148 149 148 0
1.261966 -3.575569 42.924000 148 149 148 0
1.373372 -3.591896 43.120000 149 150 149 0
1.479016 -3.591896 43.120000 149 150 149 0
1.591863 -3.608223 43.316000 146 147 146 0
1.943850 -4.130680 49.588000 128 129 128 0
2.065340 -4.130680 49.588000 106 107 106 0
2.186831 -4.130680 49.588000 100 101 100 0
2.299198 -4.114354 49.392000 96 97 96 0
2.391396 -4.065373 48.804000 89 90 89 0
2.571471 -4.163334 49.980000 91 92 91 0
2.651664 -4.098027 49.196000 99 100 99 0
2.694882 -3.983739 47.824000 118 119 118 0
2.731378 -3.869452 46.452000 144 145 144 0
2.869195 -3.902105 46.844000 150 151 150 0
2.996448 -3.918432 47.040000 172 173 172 0
3.111696 -3.918432 47.040000 175 176 175 0
3.226944 -3.918432 47.040000 174 175 174 0
3.342192 -3.918432 47.040000 172 173 172 0
3.457440 -3.918432 47.040000 165 166 165 0
3.557802 -3.902105 46.844000 165 166 165 0
3.672570 -3.902105 46.844000 170 171 170 0
3.787337 -3.902105 46.844000 174 175 174 0
3.902105 -3.902105 46.844000 176 177 176 0
4.033680 -3.918432 47.040000 177 178 177 0
4.148928 -3.918432 47.040000 170 171 170 0
4.264176 -3.918432 47.040000 163 164 163 0
4.379424 -3.918432 47.040000 163 164 163 0
4.475944 -3.902105 46.844000 167 168 167 0
4.590712 -3.902105 46.844000 169 170 169 0
4.705480 -3.902105 46.844000 159 160 159 0
4.820248 -3.902105 46.844000 152 153 152 0
4.935015 -3.902105 46.844000 154 155 154 0
5.049783 -3.902105 46.844000 152 153 152 0
5.164551 -3.902105 46.844000 154 155 154 0
5.279319 -3.902105 46.844000 150 151 150 0
5.394087 -3.902105 46.844000 149 150 149 0
5.508854 -3.902105 46.844000 149 150 149 0
5.600092 -3.885778 46.648000 149 150 149 0
5.714380 -3.885778 46.648000 148 149 148 0
5.853158 -3.902105 46.844000 148 149 148 0
5.967926 -3.902105 46.844000 148 149 148 0
6.057243 -3.885778 46.648000 148 149 148 0
6.171530 -3.885778 46.648000 148 149 148 0
6.259407 -3.869452 46.452000 148 149 148 0
6.373214 -3.869452 46.452000 129 130 129 0
6.979707 -4.163334 49.980000 75 76 75 0
7.102158 -4.163334 49.980000 52 53 52 0
7.224609 -4.163334 49.980000 46 47 46 0
7.347060 -4.163334 49.980000 42 43 42 0
7.469511 -4.163334 49.980000 39 40 39 0
7.591962 -4.163334 49.980000 36 37 36 0
7.714413 -4.163334 49.980000 33 34 33 0
7.836864 -4.163334 49.980000 31 32 31 0
7.959315 -4.163334 49.980000 30 31 30 0
8.081766 -4.163334 49.980000 28 29 28 0
8.204217 -4.163334 49.980000 27 28 27 0
8.326668 -4.163334 49.980000 25 26 25 0
8.449119 -4.163334 49.980000 24 25 24 0
8.571570 -4.163334 49.980000 23 24 23 0
8.694021 -4.163334 49.980000 23 24 23 0
8.816472 -4.163334 49.980000 21 22 21 0
8.938923 -4.163334 49.980000 20 21 20 0
9.061374 -4.163334 49.980000 20 21 20 0
9.183825 -4.163334 49.980000 19 20 19 0
9.306276 -4.163334 49.980000 18 19 18 0
9.428727 -4.163334 49.980000 18 19 18 0
9.551178 -4.163334 49.980000 17 18 17 0
9.673629 -4.163334 49.980000 16 17 16 0
-9.796080 -4.040883 49.980000 15 16 15 0
-9.673629 -4.040883 49.980000 16 17 16 0
-9.551178 -4.040883 49.980000 17 18 17 0
-9.428727 -4.040883 49.980000 19 20 19 0
-9.306276 -4.040883 49.980000 22 23 22 0
-8.787660 -3.866570 47.824000 27 28 27 0
-8.563887 -3.819031 47.236000 32 33 32 0
-8.413104 -3.803184 47.040000 35 36 35 0
-8.332430 -3.819031 47.236000 39 40 39 0
-8.216702 -3.819031 47.236000 39 40 39 0
-8.100974 -3.819031 47.236000 39 40 39 0
-8.018380 -3.834877 47.432000 38 39 38 0
-7.902171 -3.834877 47.432000 39 40 39 0
-7.785963 -3.834877 47.432000 41 42 41 0
-7.701448 -3.850724 47.628000 42 43 42 0
-7.584759 -3.850724 47.628000 43 44 43 0
-7.836864 -4.040883 49.980000 44 45 44 0
-7.714413 -4.040883 49.980000 46 47 46 0
-7.591962 -4.040883 49.980000 46 47 46 0
-7.147297 -3.866570 47.824000 47 48 47 0
-7.347060 -4.040883 49.980000 49 50 49 0
-7.224609 -4.040883 49.980000 51 52 51 0
-7.102158 -4.040883 49.980000 53 54 53 0
-6.979707 -4.040883 49.980000 54 55 54 0
-6.857256 -4.040883 49.980000 54 55 54 0
-6.734805 -4.040883 49.980000 56 57 56 0
-6.612354 -4.040883 49.980000 57 58 57 0
-6.489903 -4.040883 49.980000 58 59 58 0
-6.367452 -4.040883 49.980000 60 61 60 0
-6.245001 -4.040883 49.980000 62 63 62 0
-6.122550 -4.040883 49.980000 68 69 68 0
-5.482443 -3.692258 45.668000 108 109 108 0
-5.324458 -3.660565 45.276000 147 148 147 0
-5.213531 -3.660565 45.276000 148 149 148 0
-5.102605 -3.660565 45.276000 148 149 148 0
-4.991679 -3.660565 45.276000 148 149 148 0
-4.901882 -3.676411 45.472000 148 149 148 0
-4.790475 -3.676411 45.472000 148 149 148 0
-4.679069 -3.676411 45.472000 148 149 148 0
-4.567662 -3.676411 45.472000 148 149 148 0
-4.475464 -3.692258 45.668000 149 150 149 0
-4.363577 -3.692258 45.668000 151 152 151 0
-4.251691 -3.692258 45.668000 154 155 154 0
-4.139804 -3.692258 45.668000 153 154 153 0
-4.027918 -3.692258 45.668000 150 151 150 0
-3.899224 -3.676411 45.472000 141 142 141 0
-3.755164 -3.644718 45.080000 137 138 137 0
-3.644718 -3.644718 45.080000 141 142 141 0
-3.518906 -3.628871 44.884000 148 149 148 0
-3.408940 -3.628871 44.884000 148 149 148 0
-3.298974 -3.628871 44.884000 148 149 148 0
-3.189008 -3.628871 44.884000 148 149 148 0
-3.079042 -3.628871 44.884000 148 149 148 0
-2.956111 -3.613025 44.688000 148 149 148 0
-2.846626 -3.613025 44.688000 148 149 148 0
-2.725135 -3.597178 44.492000 146 147 146 0
-2.616130 -3.597178 44.492000 140 141 140 0
-2.496080 -3.581332 44.296000 108 109 108 0
-2.429812 -3.644718 45.080000 104 105 104 0
-2.026924 -3.185167 39.396000 124 125 124 0
-1.920800 -3.169320 39.200000 120 121 120 0
-1.824760 -3.169320 39.200000 126 127 126 0
-1.728720 -3.169320 39.200000 131 132 131 0
-1.624517 -3.153473 39.004000 133 134 133 0
-1.528957 -3.153473 39.004000 137 138 137 0
-1.174089 -2.582996 31.948000 143 144 143 0
-1.102539 -2.598842 32.144000 145 146 145 0
-1.017544 -2.582996 31.948000 145 146 145 0
-0.939271 -2.582996 31.948000 145 146 145 0
-0.866281 -2.598842 32.144000 147 148 147 0
-0.787528 -2.598842 32.144000 144 145 144 0
-0.708775 -2.598842 32.144000 143 144 143 0
-0.633864 -2.614689 32.340000 144 145 144 0
-0.554631 -2.614689 32.340000 148 149 148 0
-0.582002 -3.201013 39.592000 147 148 147 0
-0.485002 -3.201013 39.592000 147 148 147 0
-0.389922 -3.216860 39.788000 146 147 146 0
-0.293882 -3.232706 39.984000 147 148 147 0
-0.195922 -3.232706 39.984000 147 148 147 0
-0.098441 -3.248553 40.180000 148 149 148 0
0.000000 -3.264400 40.376000 148 149 148 0
0.082114 -2.709769 33.516000 148 149 148 0
0.198803 -3.280246 40.572000 148 149 148 0
0.246343 -2.709769 33.516000 148 149 148 0
0.328457 -2.709769 33.516000 148 149 148 0
0.497007 -3.280246 40.572000 148 149 148 0
0.492685 -2.709769 33.516000 148 149 148 0
0.695810 -3.280246 40.572000 148 149 148 0
0.795211 -3.280246 40.572000 148 149 148 0
0.739028 -2.709769 33.516000 148 149 148 0
0.821142 -2.709769 33.516000 148 149 148 0
1.103980 -3.311939 40.964000 148 149 148 0
1.244678 -3.422866 42.336000 139 140 139 0
1.554407 -3.945803 48.804000 130 131 130 0
1.680700 -3.961650 49.000000 116 117 116 0
1.800750 -3.961650 49.000000 103 104 103 0
1.920800 -3.961650 49.000000 97 98 97 0
2.040850 -3.961650 49.000000 96 97 96 0
2.169544 -3.977497 49.196000 97 98 97 0
2.290074 -3.977497 49.196000 92 93 92 0
2.401000 -3.961650 49.000000 89 90 89 0
2.510966 -3.945803 48.804000 94 95 94 0
2.376990 -3.565485 44.100000 115 116 115 0
2.551303 -3.660565 45.276000 141 142 141 0
2.673754 -3.676411 45.472000 148 149 148 0
2.809170 -3.708104 45.864000 150 151 150 0
2.934022 -3.723951 46.060000 167 168 167 0
3.046869 -3.723951 46.060000 168 169 168 0
3.146270 -3.708104 45.864000 167 168 167 0
3.272563 -3.723951 46.060000 166 167 166 0
3.385410 -3.723951 46.060000 162 163 162 0
3.498257 -3.723951 46.060000 160 161 160 0
3.611104 -3.723951 46.060000 160 161 160 0
3.708104 -3.708104 45.864000 168 169 168 0
3.820471 -3.708104 45.864000 171 172 171 0
3.932838 -3.708104 45.864000 167 168 167 0
4.045205 -3.708104 45.864000 163 164 163 0
4.157572 -3.708104 45.864000 163 164 163 0
4.288186 -3.723951 46.060000 156 157 156 0
4.401033 -3.723951 46.060000 161 162 161 0
4.494672 -3.708104 45.864000 162 163 162 0
4.607039 -3.708104 45.864000 157 158 157 0
4.719406 -3.708104 45.864000 150 151 150 0
4.831772 -3.708104 45.864000 149 150 149 0
4.944139 -3.708104 45.864000 153 154 153 0
5.056506 -3.708104 45.864000 157 158 157 0
5.168873 -3.708104 45.864000 150 151 150 0
5.281240 -3.708104 45.864000 149 150 149 0
5.393606 -3.708104 45.864000 148 149 148 0
5.505973 -3.708104 45.864000 148 149 148 0
5.618340 -3.708104 45.864000 148 149 148 0
5.730707 -3.708104 45.864000 148 149 148 0
5.843074 -3.708104 45.864000 148 149 148 0
5.955440 -3.708104 45.864000 148 149 148 0
6.067807 -3.708104 45.864000 148 149 148 0
6.153763 -3.692258 45.668000 148 149 148 0
6.265650 -3.692258 45.668000 127 128 127 0
6.979707 -4.040883 49.980000 74 75 74 0
7.102158 -4.040883 49.980000 51 52 51 0
7.224609 -4.040883 49.980000 45 46 45 0
7.347060 -4.040883 49.980000 41 42 41 0
7.469511 -4.040883 49.980000 39 40 39 0
7.591962 -4.040883 49.980000 36 37 36 0
7.714413 -4.040883 49.980000 33 34 33 0
7.836864 -4.040883 49.980000 31 32 31 0
7.959315 -4.040883 49.980000 29 30 29 0
8.081766 -4.040883 49.980000 28 29 28 0
8.204217 -4.040883 49.980000 26 27 26 0
8.326668 -4.040883 49.980000 25 26 25 0
8.449119 -4.040883 49.980000 24 25 24 0
8.571570 -4.040883 49.980000 23 24 23 0
8.694021 -4.040883 49.980000 22 23 22 0
8.816472 -4.040883 49.980000 21 22 21 0
8.938923 -4.040883 49.980000 20 21 20 0
9.061374 -4.040883 49.980000 19 20 19 0
9.183825 -4.040883 49.980000 19 20 19 0
9.306276 -4.040883 49.980000 19 20 19 0
9.428727 -4.040883 49.980000 17 18 17 0
9.551178 -4.040883 49.980000 17 18 17 0
9.673629 -4.040883 49.980000 16 17 16 0
-9.796080 -3.918432 49.980000 15 16 15 0
-9.673629 -3.918432 49.980000 16 17 16 0
-9.551178 -3.918432 49.980000 17 18 17 0
-9.428727 -3.918432 49.980000 19 20 19 0
-9.306276 -3.918432 49.980000 23 24 23 0
-9.183825 -3.918432 49.980000 27 28 27 0
-8.386213 -3.626470 46.256000 33 34 33 0
-8.237831 -3.611104 46.060000 36 37 36 0
-8.159558 -3.626470 46.256000 36 37 36 0
-7.978043 -3.595738 45.864000 37 38 37 0
-7.899290 -3.611104 46.060000 38 39 38 0
-7.819577 -3.626470 46.256000 40 41 40 0
-7.673596 -3.611104 46.060000 40 41 40 0
-7.625096 -3.641837 46.452000 41 42 41 0
-7.479595 -3.626470 46.256000 43 44 43 0
-7.959315 -3.918432 49.980000 44 45 44 0
-7.836864 -3.918432 49.980000 44 45 44 0
-7.200119 -3.657203 46.648000 45 46 45 0
-7.085831 -3.657203 46.648000 47 48 47 0
-7.469511 -3.918432 49.980000 47 48 47 0
-7.347060 -3.918432 49.980000 49 50 49 0
-7.224609 -3.918432 49.980000 52 53 52 0
-7.102158 -3.918432 49.980000 53 54 53 0
-6.979707 -3.918432 49.980000 54 55 54 0
-6.857256 -3.918432 49.980000 54 55 54 0
-6.734805 -3.918432 49.980000 55 56 55 0
-6.612354 -3.918432 49.980000 57 58 57 0
-6.489903 -3.918432 49.980000 57 58 57 0
-6.367452 -3.918432 49.980000 60 61 60 0
-6.245001 -3.918432 49.980000 63 64 63 0
-6.122550 -3.918432 49.980000 68 69 68 0
-5.411854 -3.534272 45.080000 108 109 108 0
-5.255309 -3.503539 44.688000 147 148 147 0
-5.168393 -3.518906 44.884000 148 149 148 0
-5.058427 -3.518906 44.884000 148 149 148 0
-4.948461 -3.518906 44.884000 148 149 148 0
-4.838495 -3.518906 44.884000 148 149 148 0
-4.728529 -3.518906 44.884000 148 149 148 0
-4.618564 -3.518906 44.884000 148 149 148 0
-4.508598 -3.518906 44.884000 148 149 148 0
-4.398632 -3.518906 44.884000 148 149 148 0
-4.307394 -3.534272 45.080000 149 150 149 0
-4.196948 -3.534272 45.080000 150 151 150 0
-4.086502 -3.534272 45.080000 151 152 151 0
-3.976056 -3.534272 45.080000 149 150 149 0
-3.848803 -3.518906 44.884000 143 144 143 0
-3.706184 -3.488173 44.492000 134 135 134 0
-3.597178 -3.488173 44.492000 140 141 140 0
-3.488173 -3.488173 44.492000 147 148 147 0
-3.364281 -3.472806 44.296000 148 149 148 0
-3.255756 -3.472806 44.296000 148 149 148 0
-3.147231 -3.472806 44.296000 148 149 148 0
-3.025260 -3.457440 44.100000 148 149 148 0
-2.917215 -3.457440 44.100000 148 149 148 0
-2.796685 -3.442074 43.904000 148 149 148 0
-3.061275 -3.918432 49.980000 146 147 146 0
-2.927299 -3.903066 49.784000 142 143 142 0
-2.485035 -3.457440 44.100000 124 125 124 0
-2.081187 -3.027181 38.612000 121 122 121 0
-1.976503 -3.011814 38.416000 121 122 121 0
-1.882384 -3.011814 38.416000 120 121 120 0
-1.788265 -3.011814 38.416000 125 126 125 0
-1.694146 -3.011814 38.416000 128 129 128 0
-1.600026 -3.011814 38.416000 130 131 130 0
-1.221629 -2.443258 31.164000 136 137 136 0
-1.152480 -2.458624 31.360000 137 138 137 0
-1.075648 -2.458624 31.360000 135 136 135 0
-0.998816 -2.458624 31.360000 136 137 136 0
-0.921984 -2.458624 31.360000 140 141 140 0
-0.845152 -2.458624 31.360000 138 139 138 0
-0.773122 -2.473990 31.556000 138 139 138 0
-0.695810 -2.473990 31.556000 135 136 135 0
-0.622339 -2.489357 31.752000 140 141 140 0
-0.544547 -2.489357 31.752000 146 147 146 0
-0.570478 -3.042547 38.808000 143 144 143 0
-0.388962 -2.489357 31.752000 143 144 143 0
-0.311170 -2.489357 31.752000 143 144 143 0
-0.233377 -2.489357 31.752000 146 147 146 0
-0.156545 -2.504723 31.948000 144 145 144 0
-0.095560 -3.057914 39.004000 146 147 146 0
0.000000 -3.073280 39.200000 147 148 147 0
0.078753 -2.520090 32.144000 148 149 148 0
0.158466 -2.535456 32.340000 148 149 148 0
0.237699 -2.535456 32.340000 148 149 148 0
0.316932 -2.535456 32.340000 148 149 148 0
0.396165 -2.535456 32.340000 148 149 148 0
0.475398 -2.535456 32.340000 148 149 148 0
0.554631 -2.535456 32.340000 148 149 148 0
0.633864 -2.535456 32.340000 148 149 148 0
0.713097 -2.535456 32.340000 148 149 148 0
0.792330 -2.535456 32.340000 148 149 148 0
1.061722 -3.088646 39.396000 148 149 148 0
1.158242 -3.088646 39.396000 131 132 131 0
1.342159 -3.303776 42.140000 94 95 94 0
1.660532 -3.795501 48.412000 91 92 91 0
1.555848 -3.319142 42.336000 93 94 93 0
1.905434 -3.810867 48.608000 94 95 94 0
2.032687 -3.826234 48.804000 95 96 95 0
2.160900 -3.841600 49.000000 92 93 92 0
2.271826 -3.826234 48.804000 93 94 93 0
2.449020 -3.918432 49.980000 105 106 105 0
2.279029 -3.472806 44.296000 119 120 119 0
2.408683 -3.503539 44.688000 139 140 139 0
2.529213 -3.518906 44.884000 146 147 146 0
2.650704 -3.534272 45.080000 148 149 148 0
2.773155 -3.549638 45.276000 149 150 149 0
2.884081 -3.549638 45.276000 157 158 157 0
2.995007 -3.549638 45.276000 162 163 162 0
3.105934 -3.549638 45.276000 163 164 163 0
3.216860 -3.549638 45.276000 159 160 159 0
3.327786 -3.549638 45.276000 155 156 155 0
3.438712 -3.549638 45.276000 158 159 158 0
3.549638 -3.549638 45.276000 158 159 158 0
3.660565 -3.549638 45.276000 159 160 159 0
3.771491 -3.549638 45.276000 157 158 157 0
3.882417 -3.549638 45.276000 155 156 155 0
3.993343 -3.549638 45.276000 154 155 154 0
4.104269 -3.549638 45.276000 157 158 157 0
4.215196 -3.549638 45.276000 157 158 157 0
4.326122 -3.549638 45.276000 157 158 157 0
4.437048 -3.549638 45.276000 155 156 155 0
4.547974 -3.549638 45.276000 154 155 154 0
4.658900 -3.549638 45.276000 148 149 148 0
4.769827 -3.549638 45.276000 148 149 148 0
4.880753 -3.549638 45.276000 148 149 148 0
4.991679 -3.549638 45.276000 149 150 149 0
5.102605 -3.549638 45.276000 150 151 150 0
5.213531 -3.549638 45.276000 148 149 148 0
5.301408 -3.534272 45.080000 148 149 148 0
5.411854 -3.534272 45.080000 148 149 148 0
5.546310 -3.549638 45.276000 148 149 148 0
5.657236 -3.549638 45.276000 148 149 148 0
5.768162 -3.549638 45.276000 148 149 148 0
5.879089 -3.549638 45.276000 148 149 148 0
5.964084 -3.534272 45.080000 148 149 148 0
6.074530 -3.534272 45.080000 148 149 148 0
6.184976 -3.534272 45.080000 123 124 123 0
6.979707 -3.918432 49.980000 70 71 70 0
7.102158 -3.918432 49.980000 50 51 50 0
7.224609 -3.918432 49.980000 44 45 44 0
7.347060 -3.918432 49.980000 39 40 39 0
7.469511 -3.918432 49.980000 37 38 37 0
7.591962 -3.918432 49.980000 35 36 35 0
7.714413 -3.918432 49.980000 32 33 32 0
7.836864 -3.918432 49.980000 30 31 30 0
7.959315 -3.918432 49.980000 29 30 29 0
8.081766 -3.918432 49.980000 27 28 27 0
8.204217 -3.918432 49.980000 26 27 26 0
8.326668 -3.918432 49.980000 25 26 25 0
8.449119 -3.918432 49.980000 23 24 23 0
8.571570 -3.918432 49.980000 22 23 22 0
8.694021 -3.918432 49.980000 22 23 22 0
8.816472 -3.918432 49.980000 20 21 20 0
8.938923 -3.918432 49.980000 20 21 20 0
9.061374 -3.918432 49.980000 19 20 19 0
9.183825 -3.918432 49.980000 18 19 18 0
9.306276 -3.918432 49.980000 18 19 18 0
9.428727 -3.918432 49.980000 18 19 18 0
9.551178 -3.918432 49.980000 16 17 16 0
9.673629 -3.918432 49.980000 15 16 15 0
-9.796080 -3.795981 49.980000 15 16 15 0
-9.673629 -3.795981 49.980000 16 17 16 0
-9.551178 -3.795981 49.980000 17 18 17 0
-9.428727 -3.795981 49.980000 20 21 20 0
-9.306276 -3.795981 49.980000 23 24 23 0
-9.183825 -3.795981 49.980000 28 29 28 0
-8.173004 -3.423826 45.080000 32 33 32 0
-8.062558 -3.423826 45.080000 33 34 33 0
-8.816472 -3.795981 49.980000 34 35 34 0
-8.694021 -3.795981 49.980000 36 37 36 0
-8.571570 -3.795981 49.980000 37 38 37 0
-7.653908 -3.438712 45.276000 38 39 38 0
-8.326668 -3.795981 49.980000 40 41 40 0
-8.204217 -3.795981 49.980000 40 41 40 0
-7.321129 -3.438712 45.276000 42 43 42 0
-7.959315 -3.795981 49.980000 44 45 44 0
-7.836864 -3.795981 49.980000 44 45 44 0
-7.714413 -3.795981 49.980000 45 46 45 0
-7.591962 -3.795981 49.980000 46 47 46 0
-7.469511 -3.795981 49.980000 47 48 47 0
-7.347060 -3.795981 49.980000 49 50 49 0
-7.224609 -3.795981 49.980000 51 52 51 0
-7.102158 -3.795981 49.980000 52 53 52 0
-6.979707 -3.795981 49.980000 53 54 53 0
-6.857256 -3.795981 49.980000 52 53 52 0
-6.734805 -3.795981 49.980000 52 53 52 0
-6.612354 -3.795981 49.980000 55 56 55 0
-6.489903 -3.795981 49.980000 57 58 57 0
-6.367452 -3.795981 49.980000 59 60 59 0
-6.245001 -3.795981 49.980000 62 63 62 0
-6.122550 -3.795981 49.980000 69 70 69 0
-5.294205 -3.349395 44.100000 117 118 117 0
-5.186160 -3.349395 44.100000 148 149 148 0
-5.100684 -3.364281 44.296000 148 149 148 0
-4.992159 -3.364281 44.296000 148 149 148 0
-4.883634 -3.364281 44.296000 148 149 148 0
-4.775109 -3.364281 44.296000 148 149 148 0
-4.666584 -3.364281 44.296000 148 149 148 0
-4.558058 -3.364281 44.296000 148 149 148 0
-4.449533 -3.364281 44.296000 148 149 148 0
-4.360216 -3.379167 44.492000 148 149 148 0
-4.251211 -3.379167 44.492000 148 149 148 0
-4.142205 -3.379167 44.492000 149 150 149 0
-4.033200 -3.379167 44.492000 149 150 149 0
-3.924194 -3.379167 44.492000 149 150 149 0
-3.815189 -3.379167 44.492000 145 146 145 0
-3.673530 -3.349395 44.100000 132 133 132 0
-3.549638 -3.334509 43.904000 134 135 134 0
-3.426707 -3.319623 43.708000 144 145 144 0
-3.781095 -3.781095 49.784000 147 148 147 0
-3.659124 -3.781095 49.784000 147 148 147 0
-3.523227 -3.766209 49.588000 148 149 148 0
-3.401737 -3.766209 49.588000 148 149 148 0
-3.267281 -3.751322 49.392000 148 149 148 0
-3.133785 -3.736436 49.196000 148 149 148 0
-3.013255 -3.736436 49.196000 144 145 144 0
-2.546981 -3.289850 43.316000 126 127 126 0
-2.131608 -2.873037 37.828000 114 115 114 0
-2.038929 -2.873037 37.828000 117 118 117 0
-1.946251 -2.873037 37.828000 116 117 116 0
-1.843968 -2.858150 37.632000 116 117 116 0
-1.751770 -2.858150 37.632000 120 121 120 0
-1.659571 -2.858150 37.632000 124 125 124 0
-1.567373 -2.858150 37.632000 130 131 130 0
-1.198579 -2.322247 30.576000 132 133 132 0
-1.123668 -2.322247 30.576000 131 132 131 0
-1.048757 -2.322247 30.576000 131 132 131 0
-0.973846 -2.322247 30.576000 128 129 128 0
-0.898934 -2.322247 30.576000 130 131 130 0
-0.829305 -2.337133 30.772000 133 134 133 0
-0.753914 -2.337133 30.772000 132 133 132 0
-0.838429 -2.887923 38.024000 127 128 127 0
-0.606973 -2.352020 30.968000 134 135 134 0
-0.531101 -2.352020 30.968000 139 140 139 0
-0.455230 -2.352020 30.968000 139 140 139 0
-0.379358 -2.352020 30.968000 139 140 139 0
-0.305407 -2.366906 31.164000 139 140 139 0
-0.229055 -2.366906 31.164000 137 138 137 0
-0.187278 -2.902809 38.220000 137 138 137 0
-0.094119 -2.917695 38.416000 141 142 141 0
0.000000 -2.381792 31.360000 144 145 144 0
0.076832 -2.381792 31.360000 145 146 145 0
0.153664 -2.381792 31.360000 146 147 146 0
0.230496 -2.381792 31.360000 146 147 146 0
0.307328 -2.381792 31.360000 147 148 147 0
0.384160 -2.381792 31.360000 147 148 147 0
0.460992 -2.381792 31.360000 148 149 148 0
0.537824 -2.381792 31.360000 148 149 148 0
0.752954 -2.917695 38.416000 147 148 147 0
0.691488 -2.381792 31.360000 147 148 147 0
0.768320 -2.381792 31.360000 148 149 148 0
1.035311 -2.917695 38.416000 147 148 147 0
1.129430 -2.917695 38.416000 147 148 147 0
1.223550 -2.917695 38.416000 122 123 122 0
1.438679 -3.185647 41.944000 91 92 91 0
1.771938 -3.662005 48.216000 94 95 94 0
1.897750 -3.676891 48.412000 92 93 92 0
2.016360 -3.676891 48.412000 91 92 91 0
2.152256 -3.706664 48.804000 103 104 103 0
2.317445 -3.781095 49.784000 128 129 128 0
2.151296 -3.334509 43.904000 144 145 144 0
2.268945 -3.349395 44.100000 145 146 145 0
2.376990 -3.349395 44.100000 145 146 145 0
2.496080 -3.364281 44.296000 145 146 145 0
2.616130 -3.379167 44.492000 148 149 148 0
2.737140 -3.394054 44.688000 149 150 149 0
2.846626 -3.394054 44.688000 152 153 152 0
2.956111 -3.394054 44.688000 152 153 152 0
3.065597 -3.394054 44.688000 152 153 152 0
3.175082 -3.394054 44.688000 152 153 152 0
3.284568 -3.394054 44.688000 151 152 151 0
3.394054 -3.394054 44.688000 151 152 151 0
3.503539 -3.394054 44.688000 155 156 155 0
3.613025 -3.394054 44.688000 154 155 154 0
3.722510 -3.394054 44.688000 151 152 151 0
3.831996 -3.394054 44.688000 149 150 149 0
3.941482 -3.394054 44.688000 149 150 149 0
4.050967 -3.394054 44.688000 150 151 150 0
4.160453 -3.394054 44.688000 149 150 149 0
4.269938 -3.394054 44.688000 149 150 149 0
4.379424 -3.394054 44.688000 149 150 149 0
4.488910 -3.394054 44.688000 148 149 148 0
4.598395 -3.394054 44.688000 148 149 148 0
4.707881 -3.394054 44.688000 148 149 148 0
4.817366 -3.394054 44.688000 148 149 148 0
4.926852 -3.394054 44.688000 148 149 148 0
5.036338 -3.394054 44.688000 148 149 148 0
5.145823 -3.394054 44.688000 148 149 148 0
5.255309 -3.394054 44.688000 148 149 148 0
5.364794 -3.394054 44.688000 148 149 148 0
5.474280 -3.394054 44.688000 148 149 148 0
5.583766 -3.394054 44.688000 148 149 148 0
5.693251 -3.394054 44.688000 148 149 148 0
5.802737 -3.394054 44.688000 148 149 148 0
5.886292 -3.379167 44.492000 148 149 148 0
5.995297 -3.379167 44.492000 147 148 147 0
6.104302 -3.379167 44.492000 117 118 117 0
6.979707 -3.795981 49.980000 68 69 68 0
7.102158 -3.795981 49.980000 48 49 48 0
7.224609 -3.795981 49.980000 43 44 43 0
7.347060 -3.795981 49.980000 39 40 39 0
7.469511 -3.795981 49.980000 35 36 35 0
7.591962 -3.795981 49.980000 34 35 34 0
7.714413 -3.795981 49.980000 31 32 31 0
7.836864 -3.795981 49.980000 29 30 29 0
7.959315 -3.795981 49.980000 28 29 28 0
8.081766 -3.795981 49.980000 26 27 26 0
8.204217 -3.795981 49.980000 25 26 25 0
8.326668 -3.795981 49.980000 24 25 24 0
8.449119 -3.795981 49.980000 22 23 22 0
8.571570 -3.795981 49.980000 22 23 22 0
8.694021 -3.795981 49.980000 21 22 21 0
8.816472 -3.795981 49.980000 20 21 20 0
8.938923 -3.795981 49.980000 20 21 20 0
9.061374 -3.795981 49.980000 19 20 19 0
9.183825 -3.795981 49.980000 18 19 18 0
9.306276 -3.795981 49.980000 17 18 17 0
8.726194 -3.513143 46.256000 16 17 16 0
9.551178 -3.795981 49.980000 16 17 16 0
9.673629 -3.795981 49.980000 16 17 16 0
-9.796080 -3.673530 49.980000 16 17 16 0
-9.673629 -3.673530 49.980000 16 17 16 0
-9.551178 -3.673530 49.980000 17 18 17 0
-9.428727 -3.673530 49.980000 19 20 19 0
-9.306276 -3.673530 49.980000 24 25 24 0
-9.183825 -3.673530 49.980000 29 30 29 0
-9.061374 -3.673530 49.980000 33 34 33 0
-7.922340 -3.255756 44.296000 34 35 34 0
-8.816472 -3.673530 49.980000 35 36 35 0
-7.739383 -3.270162 44.492000 34 35 34 0
-8.571570 -3.673530 49.980000 35 36 35 0
-7.521373 -3.270162 44.492000 36 37 36 0
-8.326668 -3.673530 49.980000 39 40 39 0
-8.204217 -3.673530 49.980000 39 40 39 0
-8.081766 -3.673530 49.980000 40 41 40 0
-7.959315 -3.673530 49.980000 42 43 42 0
-7.836864 -3.673530 49.980000 44 45 44 0
-7.714413 -3.673530 49.980000 45 46 45 0
-7.591962 -3.673530 49.980000 46 47 46 0
-7.469511 -3.673530 49.980000 45 46 45 0
-7.347060 -3.673530 49.980000 46 47 46 0
-7.224609 -3.673530 49.980000 49 50 49 0
-7.102158 -3.673530 49.980000 51 52 51 0
-6.979707 -3.673530 49.980000 50 51 50 0
-6.857256 -3.673530 49.980000 50 51 50 0
-6.734805 -3.673530 49.980000 51 52 51 0
-6.612354 -3.673530 49.980000 53 54 53 0
-6.489903 -3.673530 49.980000 56 57 56 0
-6.367452 -3.673530 49.980000 59 60 59 0
-6.245001 -3.673530 49.980000 62 63 62 0
-6.122550 -3.673530 49.980000 72 73 72 0
-5.929510 -3.630312 49.392000 126 127 126 0
-5.854598 -3.659124 49.784000 148 149 148 0
-5.010407 -3.198132 43.512000 148 149 148 0
-5.610657 -3.659124 49.784000 148 149 148 0
-4.797198 -3.198132 43.512000 148 149 148 0
-4.690594 -3.198132 43.512000 148 149 148 0
-4.604638 -3.212538 43.708000 148 149 148 0
-4.497553 -3.212538 43.708000 148 149 148 0
-4.390469 -3.212538 43.708000 148 149 148 0
-4.283384 -3.212538 43.708000 148 149 148 0
-4.195027 -3.226944 43.904000 148 149 148 0
-4.087462 -3.226944 43.904000 148 149 148 0
-3.979898 -3.226944 43.904000 148 149 148 0
-3.872333 -3.226944 43.904000 148 149 148 0
-3.764768 -3.226944 43.904000 147 148 147 0
-4.147007 -3.659124 49.784000 130 131 130 0
-3.993343 -3.630312 49.392000 130 131 130 0
-3.856966 -3.615906 49.196000 138 139 138 0
-3.721550 -3.601500 49.000000 141 142 141 0
-3.587094 -3.587094 48.804000 145 146 145 0
-3.467524 -3.587094 48.804000 148 149 148 0
-3.334509 -3.572688 48.608000 148 149 148 0
-3.215419 -3.572688 48.608000 146 147 146 0
-3.083844 -3.558282 48.412000 145 146 145 0
-2.593080 -3.111696 42.336000 131 132 131 0
-2.178187 -2.722734 37.044000 111 112 111 0
-2.098474 -2.737140 37.240000 116 117 116 0
-2.007236 -2.737140 37.240000 114 115 114 0
-1.905914 -2.722734 37.044000 113 114 113 0
-1.815156 -2.722734 37.044000 112 113 112 0
-1.715274 -2.708328 36.848000 116 117 116 0
-1.624997 -2.708328 36.848000 122 123 122 0
-1.232673 -2.175306 29.596000 127 128 127 0
-1.160163 -2.175306 29.596000 128 129 128 0
-1.087653 -2.175306 29.596000 129 130 129 0
-1.021866 -2.189712 29.792000 127 128 127 0
-1.179851 -2.722734 37.044000 124 125 124 0
-0.875885 -2.189712 29.792000 123 124 123 0
-0.802894 -2.189712 29.792000 126 127 126 0
-0.734706 -2.204118 29.988000 127 128 127 0
-0.661235 -2.204118 29.988000 125 126 125 0
-0.591606 -2.218524 30.184000 129 130 129 0
-0.642027 -2.751546 37.436000 133 134 133 0
-0.443705 -2.218524 30.184000 136 137 136 0
-0.369754 -2.218524 30.184000 135 136 135 0
-0.295803 -2.218524 30.184000 133 134 133 0
-0.221852 -2.218524 30.184000 131 132 131 0
-0.148862 -2.232930 30.380000 133 134 133 0
-0.092198 -2.765952 37.632000 136 137 136 0
0.000000 -2.247336 30.576000 139 140 139 0
0.092679 -2.780358 37.828000 140 141 140 0
0.149822 -2.247336 30.576000 141 142 141 0
0.224734 -2.247336 30.576000 141 142 141 0
0.299645 -2.247336 30.576000 143 144 143 0
0.374556 -2.247336 30.576000 142 143 142 0
0.449467 -2.247336 30.576000 142 143 142 0
0.524378 -2.247336 30.576000 143 144 143 0
0.741429 -2.780358 37.828000 142 143 142 0
0.674201 -2.247336 30.576000 142 143 142 0
0.749112 -2.247336 30.576000 144 145 144 0
0.824023 -2.247336 30.576000 144 145 144 0
1.106381 -2.765952 37.632000 142 143 142 0
1.198579 -2.765952 37.632000 142 143 142 0
1.284055 -2.751546 37.436000 115 116 115 0
1.771938 -3.543876 48.216000 106 107 106 0
1.890067 -3.543876 48.216000 113 114 113 0
2.016360 -3.558282 48.412000 123 124 123 0
2.152256 -3.587094 48.804000 139 140 139 0
2.280950 -3.601500 49.000000 145 146 145 0
2.420208 -3.630312 49.392000 145 146 145 0
2.551303 -3.644718 49.588000 145 146 145 0
2.672793 -3.644718 49.588000 144 145 144 0
2.462946 -3.212538 43.708000 143 144 143 0
2.581555 -3.226944 43.904000 148 149 148 0
2.701125 -3.241350 44.100000 148 149 148 0
2.809170 -3.241350 44.100000 150 151 150 0
2.917215 -3.241350 44.100000 155 156 155 0
3.025260 -3.241350 44.100000 154 155 154 0
3.133305 -3.241350 44.100000 152 153 152 0
3.241350 -3.241350 44.100000 151 152 151 0
3.349395 -3.241350 44.100000 154 155 154 0
3.457440 -3.241350 44.100000 157 158 157 0
3.565485 -3.241350 44.100000 153 154 153 0
3.673530 -3.241350 44.100000 150 151 150 0
3.781575 -3.241350 44.100000 149 150 149 0
3.889620 -3.241350 44.100000 148 149 148 0
3.997665 -3.241350 44.100000 149 150 149 0
4.105710 -3.241350 44.100000 148 149 148 0
4.213755 -3.241350 44.100000 148 149 148 0
4.321800 -3.241350 44.100000 148 149 148 0
4.429845 -3.241350 44.100000 148 149 148 0
4.537890 -3.241350 44.100000 148 149 148 0
4.645935 -3.241350 44.100000 148 149 148 0
4.753980 -3.241350 44.100000 148 149 148 0
4.862025 -3.241350 44.100000 148 149 148 0
4.970070 -3.241350 44.100000 148 149 148 0
5.078115 -3.241350 44.100000 148 149 148 0
5.186160 -3.241350 44.100000 148 149 148 0
5.294205 -3.241350 44.100000 148 149 148 0
5.402250 -3.241350 44.100000 148 149 148 0
5.510295 -3.241350 44.100000 148 149 148 0
5.618340 -3.241350 44.100000 148 149 148 0
5.726385 -3.241350 44.100000 148 149 148 0
5.834430 -3.241350 44.100000 148 149 148 0
5.942475 -3.241350 44.100000 145 146 145 0
6.050520 -3.241350 44.100000 113 114 113 0
6.979707 -3.673530 49.980000 66 67 66 0
7.102158 -3.673530 49.980000 47 48 47 0
7.224609 -3.673530 49.980000 42 43 42 0
7.347060 -3.673530 49.980000 37 38 37 0
7.469511 -3.673530 49.980000 35 36 35 0
7.591962 -3.673530 49.980000 32 33 32 0
7.714413 -3.673530 49.980000 30 31 30 0
7.836864 -3.673530 49.980000 28 29 28 0
7.959315 -3.673530 49.980000 27 28 27 0
8.081766 -3.673530 49.980000 26 27 26 0
8.204217 -3.673530 49.980000 25 26 25 0
8.326668 -3.673530 49.980000 24 25 24 0
8.449119 -3.673530 49.980000 22 23 22 0
8.571570 -3.673530 49.980000 21 22 21 0
8.694021 -3.673530 49.980000 21 22 21 0
8.816472 -3.673530 49.980000 20 21 20 0
8.938923 -3.673530 49.980000 19 20 19 0
9.061374 -3.673530 49.980000 19 20 19 0
9.183825 -3.673530 49.980000 17 18 17 0
9.306276 -3.673530 49.980000 17 18 17 0
9.428727 -3.673530 49.980000 17 18 17 0
9.551178 -3.673530 49.980000 16 17 16 0
9.673629 -3.673530 49.980000 16 17 16 0
-9.796080 -3.551079 49.980000 16 17 16 0
-9.673629 -3.551079 49.980000 16 17 16 0
-9.551178 -3.551079 49.980000 18 19 18 0
-9.428727 -3.551079 49.980000 20 21 20 0
-9.306276 -3.551079 49.980000 25 26 25 0
-9.183825 -3.551079 49.980000 29 30 29 0
-9.061374 -3.551079 49.980000 33 34 33 0
-8.938923 -3.551079 49.980000 35 36 35 0
-8.816472 -3.551079 49.980000 34 35 34 0
-8.694021 -3.551079 49.980000 33 34 33 0
-8.571570 -3.551079 49.980000 34 35 34 0
-8.449119 -3.551079 49.980000 35 36 35 0
-7.281753 -3.105453 43.708000 37 38 37 0
-8.204217 -3.551079 49.980000 39 40 39 0
-8.081766 -3.551079 49.980000 39 40 39 0
-7.959315 -3.551079 49.980000 41 42 41 0
-7.836864 -3.551079 49.980000 41 42 41 0
-7.714413 -3.551079 49.980000 44 45 44 0
-7.591962 -3.551079 49.980000 45 46 45 0
-7.469511 -3.551079 49.980000 44 45 44 0
-7.347060 -3.551079 49.980000 46 47 46 0
-7.224609 -3.551079 49.980000 47 48 47 0
-7.102158 -3.551079 49.980000 49 50 49 0
-6.979707 -3.551079 49.980000 48 49 48 0
-6.857256 -3.551079 49.980000 49 50 49 0
-6.734805 -3.551079 49.980000 51 52 51 0
-6.612354 -3.551079 49.980000 53 54 53 0
-6.489903 -3.551079 49.980000 57 58 57 0
-6.367452 -3.551079 49.980000 60 61 60 0
-6.245001 -3.551079 49.980000 62 63 62 0
-6.002500 -3.481450 49.000000 76 77 76 0
-5.835390 -3.453598 48.608000 133 134 133 0
-5.739350 -3.467524 48.804000 148 149 148 0
-5.642350 -3.481450 49.000000 148 149 148 0
-5.522300 -3.481450 49.000000 148 149 148 0
-5.402250 -3.481450 49.000000 148 149 148 0
-5.282200 -3.481450 49.000000 148 149 148 0
-5.182799 -3.495376 49.196000 148 149 148 0
-5.062268 -3.495376 49.196000 148 149 148 0
-4.941738 -3.495376 49.196000 148 149 148 0
-4.821208 -3.495376 49.196000 148 149 148 0
-4.700678 -3.495376 49.196000 148 149 148 0
-4.598395 -3.509302 49.392000 148 149 148 0
-3.908828 -3.063676 43.120000 148 149 148 0
-3.803184 -3.063676 43.120000 148 149 148 0
-3.697540 -3.063676 43.120000 148 149 148 0
-4.081700 -3.481450 49.000000 132 133 132 0
-3.929957 -3.453598 48.608000 126 127 126 0
-3.795501 -3.439673 48.412000 128 129 128 0
-3.662005 -3.425747 48.216000 132 133 132 0
-3.529470 -3.411821 48.020000 139 140 139 0
-3.411821 -3.411821 48.020000 144 145 144 0
-3.280726 -3.397895 47.824000 145 146 145 0
-3.163558 -3.397895 47.824000 142 143 142 0
-3.058874 -3.411821 48.020000 130 131 130 0
-2.232930 -2.590199 36.456000 109 110 109 0
-2.143613 -2.590199 36.456000 110 111 110 0
-2.054296 -2.590199 36.456000 113 114 113 0
-1.964978 -2.590199 36.456000 110 111 110 0
-1.865577 -2.576273 36.260000 111 112 111 0
-1.767136 -2.562347 36.064000 110 111 110 0
-1.678779 -2.562347 36.064000 116 117 116 0
-1.590422 -2.562347 36.064000 121 122 121 0
-1.502066 -2.562347 36.064000 122 123 122 0
-1.413709 -2.562347 36.064000 121 122 121 0
-1.325352 -2.562347 36.064000 121 122 121 0
-0.981529 -2.033167 28.616000 124 125 124 0
-0.917662 -2.047093 28.812000 122 123 122 0
-1.066044 -2.576273 36.260000 119 120 119 0
-0.781766 -2.061018 29.008000 123 124 123 0
-0.893172 -2.590199 36.456000 123 124 123 0
-0.643948 -2.074944 29.204000 123 124 123 0
-0.718379 -2.604125 36.652000 123 124 123 0
-0.628582 -2.604125 36.652000 126 127 126 0
-0.538784 -2.604125 36.652000 129 130 129 0
-0.357749 -2.074944 29.204000 129 130 129 0
-0.288120 -2.088870 29.400000 127 128 127 0
-0.270833 -2.618050 36.848000 127 128 127 0
-0.181516 -2.631976 37.044000 126 127 126 0
-0.090758 -2.631976 37.044000 130 131 130 0
0.000000 -2.102796 29.596000 133 134 133 0
0.072990 -2.116722 29.792000 134 135 134 0
0.145981 -2.116722 29.792000 135 136 135 0
0.218971 -2.116722 29.792000 136 137 136 0
0.291962 -2.116722 29.792000 137 138 137 0
0.364952 -2.116722 29.792000 137 138 137 0
0.437942 -2.116722 29.792000 138 139 138 0
0.638666 -2.645902 37.240000 137 138 137 0
0.583923 -2.116722 29.792000 137 138 137 0
0.656914 -2.116722 29.792000 139 140 139 0
0.907578 -2.631976 37.044000 138 139 138 0
0.998336 -2.631976 37.044000 138 139 138 0
0.870122 -2.102796 29.596000 137 138 137 0
0.942633 -2.102796 29.596000 141 142 141 0
1.015143 -2.102796 29.596000 137 138 137 0
1.555848 -3.007973 42.336000 132 133 132 0
1.874701 -3.397895 47.824000 140 141 140 0
1.991870 -3.397895 47.824000 142 143 142 0
2.117682 -3.411821 48.020000 143 144 143 0
2.244455 -3.425747 48.216000 143 144 143 0
2.372188 -3.439673 48.412000 145 146 145 0
2.500882 -3.453598 48.608000 143 144 143 0
2.630536 -3.467524 48.804000 142 143 142 0
2.772195 -3.495376 49.196000 143 144 143 0
2.546981 -3.077602 43.316000 148 149 148 0
2.653105 -3.077602 43.316000 148 149 148 0
2.759229 -3.077602 43.316000 148 149 148 0
2.865353 -3.077602 43.316000 150 151 150 0
2.971478 -3.077602 43.316000 151 152 151 0
3.077602 -3.077602 43.316000 149 150 149 0
3.183726 -3.077602 43.316000 149 150 149 0
3.289850 -3.077602 43.316000 151 152 151 0
3.395974 -3.077602 43.316000 150 151 150 0
3.502099 -3.077602 43.316000 149 150 149 0
3.608223 -3.077602 43.316000 148 149 148 0
3.714347 -3.077602 43.316000 148 149 148 0
3.820471 -3.077602 43.316000 148 149 148 0
3.926595 -3.077602 43.316000 148 149 148 0
4.032720 -3.077602 43.316000 148 149 148 0
4.138844 -3.077602 43.316000 148 149 148 0
4.244968 -3.077602 43.316000 148 149 148 0
4.351092 -3.077602 43.316000 148 149 148 0
4.457216 -3.077602 43.316000 148 149 148 0
4.563341 -3.077602 43.316000 148 149 148 0
4.669465 -3.077602 43.316000 148 149 148 0
4.797198 -3.091528 43.512000 148 149 148 0
4.881713 -3.077602 43.316000 148 149 148 0
4.987837 -3.077602 43.316000 148 149 148 0
5.093962 -3.077602 43.316000 148 149 148 0
5.200086 -3.077602 43.316000 148 149 148 0
5.306210 -3.077602 43.316000 148 149 148 0
5.412334 -3.077602 43.316000 148 149 148 0
5.543429 -3.091528 43.512000 148 149 148 0
5.624583 -3.077602 43.316000 148 149 148 0
5.730707 -3.077602 43.316000 148 149 148 0
5.863242 -3.091528 43.512000 145 146 145 0
6.830365 -3.537153 49.784000 107 108 107 0
6.979707 -3.551079 49.980000 62 63 62 0
7.102158 -3.551079 49.980000 46 47 46 0
7.224609 -3.551079 49.980000 39 40 39 0
7.347060 -3.551079 49.980000 37 38 37 0
7.469511 -3.551079 49.980000 34 35 34 0
7.591962 -3.551079 49.980000 31 32 31 0
7.714413 -3.551079 49.980000 29 30 29 0
7.836864 -3.551079 49.980000 28 29 28 0
7.959315 -3.551079 49.980000 27 28 27 0
8.081766 -3.551079 49.980000 25 26 25 0
8.204217 -3.551079 49.980000 25 26 25 0
8.326668 -3.551079 49.980000 23 24 23 0
8.449119 -3.551079 49.980000 22 23 22 0
8.571570 -3.551079 49.980000 21 22 21 0
8.694021 -3.551079 49.980000 19 20 19 0
8.816472 -3.551079 49.980000 19 20 19 0
8.938923 -3.551079 49.980000 19 20 19 0
9.061374 -3.551079 49.980000 18 19 18 0
8.679615 -3.356118 47.236000 17 18 17 0
9.306276 -3.551079 49.980000 17 18 17 0
9.428727 -3.551079 49.980000 16 17 16 0
9.551178 -3.551079 49.980000 16 17 16 0
9.673629 -3.551079 49.980000 15 16 15 0
-9.796080 -3.428628 49.980000 15 16 15 0
-9.673629 -3.428628 49.980000 16 17 16 0
-9.551178 -3.428628 49.980000 19 20 19 0
-9.428727 -3.428628 49.980000 23 24 23 0
-9.233286 -3.401737 49.588000 26 27 26 0
-9.183825 -3.428628 49.980000 28 29 28 0
-9.061374 -3.428628 49.980000 31 32 31 0
-8.938923 -3.428628 49.980000 34 35 34 0
-8.712749 -3.388291 49.392000 33 34 33 0
-8.591738 -3.388291 49.392000 33 34 33 0
-8.571570 -3.428628 49.980000 33 34 33 0
-8.349718 -3.388291 49.392000 36 37 36 0
-8.228707 -3.388291 49.392000 37 38 37 0
-8.204217 -3.428628 49.980000 38 39 38 0
-8.081766 -3.428628 49.980000 39 40 39 0
-7.865676 -3.388291 49.392000 38 39 38 0
-7.744666 -3.388291 49.392000 39 40 39 0
-7.714413 -3.428628 49.980000 41 42 41 0
-7.591962 -3.428628 49.980000 43 44 43 0
-7.469511 -3.428628 49.980000 44 45 44 0
-7.347060 -3.428628 49.980000 45 46 45 0
-7.224609 -3.428628 49.980000 46 47 46 0
-7.046455 -3.401737 49.588000 47 48 47 0
-6.924964 -3.401737 49.588000 49 50 49 0
-6.857256 -3.428628 49.980000 50 51 50 0
-6.681983 -3.401737 49.588000 51 52 51 0
-6.560492 -3.401737 49.588000 54 55 54 0
-6.439002 -3.401737 49.588000 57 58 57 0
-6.317511 -3.401737 49.588000 58 59 58 0
-6.171530 -3.388291 49.392000 60 61 60 0
-5.930470 -3.321063 48.412000 79 80 79 0
-5.741271 -3.280726 47.824000 137 138 137 0
-5.647152 -3.294172 48.020000 148 149 148 0
-5.529503 -3.294172 48.020000 148 149 148 0
-5.411854 -3.294172 48.020000 148 149 148 0
-5.294205 -3.294172 48.020000 148 149 148 0
-5.197685 -3.307618 48.216000 148 149 148 0
-5.079556 -3.307618 48.216000 148 149 148 0
-4.961426 -3.307618 48.216000 148 149 148 0
-4.843297 -3.307618 48.216000 148 149 148 0
-4.725168 -3.307618 48.216000 148 149 148 0
-4.625767 -3.321063 48.412000 148 149 148 0
-4.525405 -3.334509 48.608000 148 149 148 0
-4.406315 -3.334509 48.608000 148 149 148 0
-4.287226 -3.334509 48.608000 148 149 148 0
-4.168136 -3.334509 48.608000 148 149 148 0
-4.032720 -3.321063 48.412000 136 137 136 0
-3.866570 -3.280726 47.824000 122 123 122 0
-3.749402 -3.280726 47.824000 123 124 123 0
-3.617347 -3.267281 47.628000 124 125 124 0
-3.486252 -3.253835 47.432000 129 130 129 0
-3.370044 -3.253835 47.432000 135 136 135 0
-3.240390 -3.240390 47.236000 140 141 140 0
-3.124661 -3.240390 47.236000 135 136 135 0
-2.684318 -2.890804 42.140000 110 111 110 0
-2.184910 -2.447099 35.672000 105 106 105 0
-2.097514 -2.447099 35.672000 107 108 107 0
-1.999073 -2.433654 35.476000 111 112 111 0
-1.912156 -2.433654 35.476000 109 110 109 0
-1.815156 -2.420208 35.280000 107 108 107 0
-1.728720 -2.420208 35.280000 108 109 108 0
-1.633160 -2.406762 35.084000 114 115 114 0
-1.547204 -2.406762 35.084000 116 117 116 0
-1.461249 -2.406762 35.084000 116 117 116 0
-1.375293 -2.406762 35.084000 119 120 119 0
-1.289337 -2.406762 35.084000 116 117 116 0
-0.947915 -1.895830 27.636000 119 120 119 0
-1.129911 -2.433654 35.476000 119 120 119 0
-1.042994 -2.433654 35.476000 118 119 118 0
-0.956078 -2.433654 35.476000 118 119 118 0
-0.873964 -2.447099 35.672000 119 120 119 0
-0.786568 -2.447099 35.672000 119 120 119 0
-0.703013 -2.460545 35.868000 116 117 116 0
-0.615136 -2.460545 35.868000 122 123 122 0
-0.527260 -2.460545 35.868000 122 123 122 0
-0.441784 -2.473990 36.064000 123 124 123 0
-0.353427 -2.473990 36.064000 125 126 125 0
-0.266511 -2.487436 36.260000 123 124 123 0
-0.177674 -2.487436 36.260000 123 124 123 0
-0.088837 -2.487436 36.260000 125 126 125 0
0.000000 -1.976503 28.812000 127 128 127 0
0.089317 -2.500882 36.456000 129 130 129 0
0.142139 -1.989949 29.008000 129 130 129 0
0.213209 -1.989949 29.008000 132 133 132 0
0.284278 -1.989949 29.008000 132 133 132 0
0.355348 -1.989949 29.008000 133 134 133 0
0.426418 -1.989949 29.008000 134 135 134 0
0.497487 -1.989949 29.008000 134 135 134 0
0.568557 -1.989949 29.008000 134 135 134 0
0.635305 -1.976503 28.812000 134 135 134 0
0.893172 -2.500882 36.456000 132 133 132 0
0.977207 -2.487436 36.260000 133 134 133 0
0.847073 -1.976503 28.812000 134 135 134 0
0.917662 -1.976503 28.812000 135 136 135 0
0.988252 -1.976503 28.812000 139 140 139 0
1.332555 -2.487436 36.260000 121 122 121 0
1.859334 -3.253835 47.432000 136 137 136 0
1.975543 -3.253835 47.432000 141 142 141 0
2.091751 -3.253835 47.432000 142 143 142 0
2.207960 -3.253835 47.432000 142 143 142 0
2.333772 -3.267281 47.628000 143 144 143 0
2.460545 -3.280726 47.824000 140 141 140 0
2.588278 -3.294172 48.020000 138 139 138 0
2.728016 -3.321063 48.412000 143 144 143 0
2.489357 -2.904250 42.336000 148 149 148 0
2.989245 -3.347954 48.804000 148 149 148 0
2.696803 -2.904250 42.336000 148 149 148 0
2.800526 -2.904250 42.336000 148 149 148 0
2.904250 -2.904250 42.336000 148 149 148 0
3.007973 -2.904250 42.336000 148 149 148 0
3.111696 -2.904250 42.336000 148 149 148 0
3.215419 -2.904250 42.336000 148 149 148 0
3.319142 -2.904250 42.336000 148 149 148 0
3.945803 -3.347954 48.804000 148 149 148 0
3.526589 -2.904250 42.336000 148 149 148 0
4.184943 -3.347954 48.804000 148 149 148 0
3.734035 -2.904250 42.336000 148 149 148 0
4.424083 -3.347954 48.804000 148 149 148 0
4.543652 -3.347954 48.804000 148 149 148 0
4.663222 -3.347954 48.804000 148 149 148 0
4.782792 -3.347954 48.804000 148 149 148 0
4.902362 -3.347954 48.804000 148 149 148 0
5.021932 -3.347954 48.804000 148 149 148 0
5.141501 -3.347954 48.804000 148 149 148 0
5.261071 -3.347954 48.804000 148 149 148 0
5.380641 -3.347954 48.804000 148 149 148 0
5.522300 -3.361400 49.000000 148 149 148 0
5.642350 -3.361400 49.000000 148 149 148 0
5.762400 -3.361400 49.000000 148 149 148 0
5.882450 -3.361400 49.000000 148 149 148 0
6.002500 -3.361400 49.000000 148 149 148 0
6.122550 -3.361400 49.000000 148 149 148 0
6.242600 -3.361400 49.000000 148 149 148 0
6.362650 -3.361400 49.000000 148 149 148 0
6.482700 -3.361400 49.000000 148 149 148 0
6.602750 -3.361400 49.000000 145 146 145 0
6.722800 -3.361400 49.000000 107 108 107 0
6.979707 -3.428628 49.980000 62 63 62 0
7.102158 -3.428628 49.980000 46 47 46 0
7.224609 -3.428628 49.980000 40 41 40 0
7.347060 -3.428628 49.980000 36 37 36 0
7.469511 -3.428628 49.980000 33 34 33 0
7.591962 -3.428628 49.980000 31 32 31 0
7.714413 -3.428628 49.980000 29 30 29 0
7.836864 -3.428628 49.980000 27 28 27 0
7.959315 -3.428628 49.980000 26 27 26 0
8.081766 -3.428628 49.980000 25 26 25 0
8.204217 -3.428628 49.980000 23 24 23 0
8.326668 -3.428628 49.980000 22 23 22 0
8.449119 -3.428628 49.980000 21 22 21 0
8.571570 -3.428628 49.980000 20 21 20 0
8.694021 -3.428628 49.980000 19 20 19 0
8.816472 -3.428628 49.980000 19 20 19 0
8.938923 -3.428628 49.980000 18 19 18 0
9.061374 -3.428628 49.980000 18 19 18 0
9.183825 -3.428628 49.980000 17 18 17 0
9.306276 -3.428628 49.980000 17 18 17 0
9.428727 -3.428628 49.980000 16 17 16 0
9.551178 -3.428628 49.980000 15 16 15 0
9.673629 -3.428628 49.980000 15 16 15 0
-9.796080 -3.306177 49.980000 16 17 16 0
-9.673629 -3.306177 49.980000 17 18 17 0
-9.551178 -3.306177 49.980000 20 21 20 0
-9.428727 -3.306177 49.980000 24 25 24 0
-9.306276 -3.306177 49.980000 27 28 27 0
-9.183825 -3.306177 49.980000 28 29 28 0
-9.061374 -3.306177 49.980000 30 31 30 0
-8.938923 -3.306177 49.980000 32 33 32 0
-8.609026 -3.228385 48.804000 33 34 33 0
-8.694021 -3.306177 49.980000 33 34 33 0
-8.571570 -3.306177 49.980000 34 35 34 0
-8.449119 -3.306177 49.980000 35 36 35 0
-8.326668 -3.306177 49.980000 37 38 37 0
-8.204217 -3.306177 49.980000 37 38 37 0
-8.081766 -3.306177 49.980000 38 39 38 0
-7.959315 -3.306177 49.980000 37 38 37 0
-7.836864 -3.306177 49.980000 39 40 39 0
-7.714413 -3.306177 49.980000 40 41 40 0
-7.591962 -3.306177 49.980000 41 42 41 0
-7.469511 -3.306177 49.980000 43 44 43 0
-7.347060 -3.306177 49.980000 46 47 46 0
-7.224609 -3.306177 49.980000 47 48 47 0
-7.102158 -3.306177 49.980000 48 49 48 0
-6.979707 -3.306177 49.980000 48 49 48 0
-6.857256 -3.306177 49.980000 51 52 51 0
-6.734805 -3.306177 49.980000 51 52 51 0
-6.612354 -3.306177 49.980000 53 54 53 0
-6.489903 -3.306177 49.980000 54 55 54 0
-6.217630 -3.228385 48.804000 58 59 58 0
-6.122550 -3.241350 49.000000 60 61 60 0
-5.834430 -3.150592 47.628000 76 77 76 0
-5.670682 -3.124661 47.236000 132 133 132 0
-5.554954 -3.124661 47.236000 148 149 148 0
-5.439225 -3.124661 47.236000 148 149 148 0
-5.323497 -3.124661 47.236000 148 149 148 0
-5.207769 -3.124661 47.236000 148 149 148 0
-5.113170 -3.137627 47.432000 148 149 148 0
-4.996961 -3.137627 47.432000 148 149 148 0
-4.880753 -3.137627 47.432000 147 148 147 0
-4.764544 -3.137627 47.432000 146 147 146 0
-4.648336 -3.137627 47.432000 146 147 146 0
-4.532128 -3.137627 47.432000 148 149 148 0
-4.434167 -3.150592 47.628000 148 149 148 0
-4.317478 -3.150592 47.628000 148 149 148 0
-4.200790 -3.150592 47.628000 148 149 148 0
-4.084101 -3.150592 47.628000 148 149 148 0
-3.967412 -3.150592 47.628000 142 143 142 0
-3.819031 -3.124661 47.236000 119 120 119 0
-3.703302 -3.124661 47.236000 119 120 119 0
-3.572688 -3.111696 47.040000 120 121 120 0
-3.457440 -3.111696 47.040000 123 124 123 0
-3.342192 -3.111696 47.040000 124 125 124 0
-3.213498 -3.098731 46.844000 129 130 129 0
-3.124661 -3.124661 47.236000 115 116 115 0
-2.222366 -2.307841 34.888000 106 107 106 0
-2.136890 -2.307841 34.888000 106 107 106 0
-2.454782 -2.761630 41.748000 105 106 105 0
-2.341455 -2.748665 41.552000 108 109 108 0
-1.859334 -2.281910 34.496000 108 109 108 0
-1.764735 -2.268945 34.300000 108 109 108 0
-1.680700 -2.268945 34.300000 109 110 109 0
-1.587541 -2.255980 34.104000 111 112 111 0
-1.503986 -2.255980 34.104000 113 114 113 0
-1.420432 -2.255980 34.104000 115 116 115 0
-1.336877 -2.255980 34.104000 117 118 117 0
-1.253322 -2.255980 34.104000 114 115 114 0
-1.169767 -2.255980 34.104000 116 117 116 0
-1.092455 -2.268945 34.300000 114 115 114 0
-1.014182 -2.281910 34.496000 113 114 113 0
-0.929667 -2.281910 34.496000 113 114 113 0
-0.849954 -2.294876 34.692000 115 116 115 0
-0.764959 -2.294876 34.692000 116 117 116 0
-0.683805 -2.307841 34.888000 113 114 113 0
-0.598329 -2.307841 34.888000 117 118 117 0
-0.515735 -2.320807 35.084000 117 118 117 0
-0.429779 -2.320807 35.084000 119 120 119 0
-0.343823 -2.320807 35.084000 120 121 120 0
-0.259308 -2.333772 35.280000 119 120 119 0
-0.172872 -2.333772 35.280000 118 119 118 0
-0.086916 -2.346737 35.476000 121 122 121 0
0.000000 -2.346737 35.476000 123 124 123 0
