ply
format ascii 1.0
element vertex 1201
property float x
property float y
property float z
property uchar red
property uchar green
property uchar blue
property uchar alpha
end_header
29.480000 8.360000 43.560000 12 13 12 0
29.700000 8.360000 43.560000 11 12 11 0
29.920000 8.360000 41.800000 11 12 11 0
30.140000 8.360000 42.020000 13 14 13 0
30.360000 8.360000 34.760000 15 16 15 0
30.580000 8.360000 34.760000 19 20 19 0
30.800000 8.360000 34.760000 23 24 23 0
31.020000 8.360000 34.540000 28 29 28 0
31.240000 8.360000 34.540000 32 33 32 0
31.460000 8.360000 27.060000 35 36 35 0
31.680000 8.360000 27.060000 38 39 38 0
31.900000 8.360000 27.060000 38 39 38 0
32.120000 8.360000 27.060000 38 39 38 0
32.340000 8.360000 27.060000 38 39 38 0
32.560000 8.360000 27.060000 38 39 38 0
32.780000 8.360000 27.060000 38 39 38 0
33.000000 8.360000 27.060000 40 41 40 0
33.220000 8.360000 27.060000 38 39 38 0
33.440000 8.360000 27.060000 38 39 38 0
33.660000 8.360000 27.060000 37 38 37 0
33.880000 8.360000 26.840000 38 39 38 0
34.100000 8.360000 27.060000 37 38 37 0
34.320000 8.360000 26.840000 38 39 38 0
34.540000 8.360000 27.060000 39 40 39 0
34.760000 8.360000 27.060000 39 40 39 0
34.980000 8.360000 27.060000 38 39 38 0
0.000000 8.580000 26.400000 25 26 25 0
0.220000 8.580000 26.400000 27 28 27 0
0.440000 8.580000 26.400000 27 28 27 0
0.660000 8.580000 26.620000 29 30 29 0
0.880000 8.580000 26.620000 29 30 29 0
1.100000 8.580000 26.620000 29 30 29 0
1.320000 8.580000 26.620000 29 30 29 0
1.540000 8.580000 26.840000 30 31 30 0
1.760000 8.580000 26.620000 28 29 28 0
1.980000 8.580000 26.620000 29 30 29 0
2.200000 8.580000 26.620000 29 30 29 0
2.420000 8.580000 26.620000 29 30 29 0
2.640000 8.580000 26.620000 30 31 30 0
2.860000 8.580000 26.840000 30 31 30 0
3.080000 8.580000 26.620000 29 30 29 0
3.300000 8.580000 26.620000 29 30 29 0
3.520000 8.580000 26.620000 29 30 29 0
3.740000 8.580000 26.840000 30 31 30 0
3.960000 8.580000 26.620000 29 30 29 0
4.180000 8.580000 26.620000 29 30 29 0
4.400000 8.580000 26.620000 29 30 29 0
4.620000 8.580000 34.320000 29 30 29 0
4.840000 8.580000 34.320000 30 31 30 0
5.060000 8.580000 26.620000 29 30 29 0
5.280000 8.580000 26.620000 29 30 29 0
5.500000 8.580000 34.320000 30 31 30 0
5.720000 8.580000 34.100000 30 31 30 0
5.940000 8.580000 34.100000 29 30 29 0
6.160000 8.580000 34.320000 29 30 29 0
6.380000 8.580000 34.320000 30 31 30 0
6.600000 8.580000 34.320000 30 31 30 0
6.820000 8.580000 34.320000 31 32 31 0
7.040000 8.580000 34.320000 29 30 29 0
7.260000 8.580000 34.320000 30 31 30 0
7.480000 8.580000 26.620000 30 31 30 0
7.700000 8.580000 34.320000 30 31 30 0
7.920000 8.580000 34.100000 31 32 31 0
8.140000 8.580000 34.100000 30 31 30 0
8.360000 8.580000 34.100000 30 31 30 0
8.580000 8.580000 34.320000 30 31 30 0
8.800000 8.580000 34.320000 31 32 31 0
9.020000 8.580000 34.100000 30 31 30 0
9.240000 8.580000 34.100000 31 32 31 0
9.460000 8.580000 34.320000 31 32 31 0
9.680000 8.580000 34.320000 31 32 31 0
9.900000 8.580000 34.100000 30 31 30 0
10.120000 8.580000 34.100000 31 32 31 0
10.340000 8.580000 34.320000 31 32 31 0
10.560000 8.580000 34.100000 31 32 31 0
10.780000 8.580000 34.320000 32 33 32 0
11.000000 8.580000 34.320000 31 32 31 0
11.220000 8.580000 34.320000 31 32 31 0
11.440000 8.580000 34.100000 31 32 31 0
11.660000 8.580000 34.100000 31 32 31 0
11.880000 8.580000 34.320000 31 32 31 0
12.100000 8.580000 34.100000 31 32 31 0
12.320000 8.580000 33.440000 30 31 30 0
12.540000 8.580000 22.220000 34 35 34 0
12.760000 8.580000 43.560000 37 38 37 0
12.980000 8.580000 43.560000 50 51 50 0
13.200000 8.580000 43.560000 46 47 46 0
13.420000 8.580000 43.560000 53 54 53 0
13.640000 8.580000 43.560000 53 54 53 0
13.860000 8.580000 43.560000 56 57 56 0
14.080000 8.580000 43.560000 56 57 56 0
14.300000 8.580000 43.560000 58 59 58 0
14.520000 8.580000 43.560000 57 58 57 0
14.740000 8.580000 43.560000 55 56 55 0
14.960000 8.580000 43.560000 53 54 53 0
15.180000 8.580000 43.560000 51 52 51 0
15.400000 8.580000 43.560000 50 51 50 0
15.620000 8.580000 43.560000 49 50 49 0
15.840000 8.580000 43.560000 50 51 50 0
16.060000 8.580000 43.560000 47 48 47 0
16.280000 8.580000 43.560000 45 46 45 0
16.500000 8.580000 43.560000 46 47 46 0
16.720000 8.580000 43.560000 46 47 46 0
16.940000 8.580000 43.560000 50 51 50 0
17.160000 8.580000 43.560000 57 58 57 0
17.380000 8.580000 43.560000 61 62 61 0
17.600000 8.580000 39.380000 65 66 65 0
17.820000 8.580000 39.380000 69 70 69 0
18.040000 8.580000 43.560000 65 66 65 0
18.260000 8.580000 39.160000 68 69 68 0
18.480000 8.580000 43.560000 66 67 66 0
18.700000 8.580000 43.560000 67 68 67 0
18.920000 8.580000 43.560000 66 67 66 0
19.140000 8.580000 43.560000 64 65 64 0
19.360000 8.580000 43.560000 62 63 62 0
19.580000 8.580000 43.560000 62 63 62 0
19.800000 8.580000 43.560000 58 59 58 0
20.020000 8.580000 43.560000 57 58 57 0
20.240000 8.580000 43.560000 59 60 59 0
20.460000 8.580000 43.560000 61 62 61 0
20.680000 8.580000 43.560000 63 64 63 0
20.900000 8.580000 43.560000 65 66 65 0
21.120000 8.580000 43.560000 64 65 64 0
21.340000 8.580000 43.560000 64 65 64 0
21.560000 8.580000 43.560000 67 68 67 0
21.780000 8.580000 43.560000 66 67 66 0
22.000000 8.580000 43.560000 64 65 64 0
22.220000 8.580000 43.560000 65 66 65 0
22.440000 8.580000 43.560000 63 64 63 0
22.660000 8.580000 43.560000 63 64 63 0
22.880000 8.580000 43.560000 65 66 65 0
23.100000 8.580000 43.560000 66 67 66 0
23.320000 8.580000 43.560000 66 67 66 0
23.540000 8.580000 43.560000 68 69 68 0
23.760000 8.580000 43.560000 72 73 72 0
23.980000 8.580000 43.560000 73 74 73 0
24.200000 8.580000 43.560000 74 75 74 0
24.420000 8.580000 43.560000 74 75 74 0
24.640000 8.580000 43.560000 75 76 75 0
24.860000 8.580000 43.560000 78 79 78 0
25.080000 8.580000 43.560000 79 80 79 0
25.300000 8.580000 43.560000 78 79 78 0
25.520000 8.580000 43.560000 76 77 76 0
25.740000 8.580000 43.560000 76 77 76 0
25.960000 8.580000 43.560000 78 79 78 0
26.180000 8.580000 43.560000 81 82 81 0
26.400000 8.580000 43.560000 78 79 78 0
26.620000 8.580000 43.560000 79 80 79 0
26.840000 8.580000 43.560000 77 78 77 0
27.060000 8.580000 43.560000 76 77 76 0
27.280000 8.580000 43.560000 71 72 71 0
27.500000 8.580000 43.560000 70 71 70 0
27.720000 8.580000 43.560000 66 67 66 0
27.940000 8.580000 43.560000 65 66 65 0
28.160000 8.580000 43.560000 62 63 62 0
28.380000 8.580000 43.560000 56 57 56 0
28.600000 8.580000 43.560000 51 52 51 0
28.820000 8.580000 43.560000 49 50 49 0
29.040000 8.580000 43.560000 45 46 45 0
29.260000 8.580000 43.560000 38 39 38 0
29.480000 8.580000 43.560000 21 22 21 0
29.700000 8.580000 43.560000 12 13 12 0
29.920000 8.580000 43.560000 11 12 11 0
30.140000 8.580000 41.580000 12 13 12 0
30.360000 8.580000 41.580000 12 13 12 0
30.580000 8.580000 41.580000 13 14 13 0
30.800000 8.580000 34.320000 16 17 16 0
31.020000 8.580000 34.320000 21 22 21 0
31.240000 8.580000 34.320000 25 26 25 0
31.460000 8.580000 26.620000 29 30 29 0
31.680000 8.580000 26.620000 34 35 34 0
31.900000 8.580000 26.620000 37 38 37 0
32.120000 8.580000 34.100000 36 37 36 0
32.340000 8.580000 26.400000 37 38 37 0
32.560000 8.580000 26.620000 38 39 38 0
32.780000 8.580000 26.620000 39 40 39 0
33.000000 8.580000 26.620000 38 39 38 0
33.220000 8.580000 26.620000 38 39 38 0
33.440000 8.580000 26.620000 37 38 37 0
33.660000 8.580000 26.840000 38 39 38 0
33.880000 8.580000 26.620000 38 39 38 0
34.100000 8.580000 26.620000 38 39 38 0
34.320000 8.580000 26.620000 38 39 38 0
34.540000 8.580000 26.840000 38 39 38 0
34.760000 8.580000 26.840000 38 39 38 0
34.980000 8.580000 26.620000 37 38 37 0
0.000000 8.800000 25.960000 25 26 25 0
0.220000 8.800000 26.180000 27 28 27 0
0.440000 8.800000 25.960000 28 29 28 0
0.660000 8.800000 25.960000 27 28 27 0
0.880000 8.800000 26.180000 29 30 29 0
1.100000 8.800000 26.180000 29 30 29 0
1.320000 8.800000 26.180000 29 30 29 0
1.540000 8.800000 26.180000 28 29 28 0
1.760000 8.800000 26.400000 29 30 29 0
1.980000 8.800000 26.180000 30 31 30 0
2.200000 8.800000 26.180000 30 31 30 0
2.420000 8.800000 26.180000 29 30 29 0
2.640000 8.800000 34.100000 30 31 30 0
2.860000 8.800000 26.180000 29 30 29 0
3.080000 8.800000 26.180000 29 30 29 0
3.300000 8.800000 33.880000 29 30 29 0
3.520000 8.800000 26.180000 30 31 30 0
3.740000 8.800000 26.400000 30 31 30 0
3.960000 8.800000 33.880000 30 31 30 0
4.180000 8.800000 26.400000 30 31 30 0
4.400000 8.800000 26.180000 29 30 29 0
4.620000 8.800000 25.960000 29 30 29 0
4.840000 8.800000 26.180000 30 31 30 0
5.060000 8.800000 33.880000 30 31 30 0
5.280000 8.800000 26.400000 30 31 30 0
5.500000 8.800000 26.180000 30 31 30 0
5.720000 8.800000 25.960000 29 30 29 0
5.940000 8.800000 33.880000 31 32 31 0
6.160000 8.800000 33.880000 30 31 30 0
6.380000 8.800000 33.880000 30 31 30 0
6.600000 8.800000 33.880000 30 31 30 0
6.820000 8.800000 26.180000 31 32 31 0
7.040000 8.800000 33.880000 30 31 30 0
7.260000 8.800000 33.880000 30 31 30 0
7.480000 8.800000 34.100000 32 33 32 0
7.700000 8.800000 33.880000 31 32 31 0
7.920000 8.800000 33.880000 30 31 30 0
8.140000 8.800000 33.880000 29 30 29 0
8.360000 8.800000 33.660000 29 30 29 0
8.580000 8.800000 33.880000 30 31 30 0
8.800000 8.800000 33.880000 31 32 31 0
9.020000 8.800000 33.880000 30 31 30 0
9.240000 8.800000 34.100000 31 32 31 0
9.460000 8.800000 33.660000 30 31 30 0
9.680000 8.800000 33.880000 31 32 31 0
9.900000 8.800000 33.880000 30 31 30 0
10.120000 8.800000 33.880000 31 32 31 0
10.340000 8.800000 33.880000 32 33 32 0
10.560000 8.800000 33.880000 32 33 32 0
10.780000 8.800000 33.880000 31 32 31 0
11.000000 8.800000 33.880000 31 32 31 0
11.220000 8.800000 33.880000 30 31 30 0
11.440000 8.800000 33.880000 31 32 31 0
11.660000 8.800000 33.880000 31 32 31 0
11.880000 8.800000 33.880000 30 31 30 0
12.100000 8.800000 33.880000 28 29 28 0
12.320000 8.800000 28.820000 33 34 33 0
12.540000 8.800000 43.560000 38 39 38 0
12.760000 8.800000 43.560000 44 45 44 0
12.980000 8.800000 43.560000 48 49 48 0
13.200000 8.800000 43.560000 50 51 50 0
13.420000 8.800000 43.560000 55 56 55 0
13.640000 8.800000 43.560000 61 62 61 0
13.860000 8.800000 43.560000 53 54 53 0
14.080000 8.800000 43.560000 53 54 53 0
14.300000 8.800000 43.560000 52 53 52 0
14.520000 8.800000 43.560000 50 51 50 0
14.740000 8.800000 43.560000 48 49 48 0
14.960000 8.800000 43.560000 46 47 46 0
15.180000 8.800000 43.560000 46 47 46 0
15.400000 8.800000 43.560000 44 45 44 0
15.620000 8.800000 43.560000 45 46 45 0
15.840000 8.800000 43.560000 45 46 45 0
16.060000 8.800000 43.560000 43 44 43 0
16.280000 8.800000 43.560000 43 44 43 0
16.500000 8.800000 43.560000 44 45 44 0
16.720000 8.800000 43.560000 45 46 45 0
16.940000 8.800000 43.560000 51 52 51 0
17.160000 8.800000 43.560000 58 59 58 0
17.380000 8.800000 43.560000 62 63 62 0
17.600000 8.800000 31.240000 68 69 68 0
17.820000 8.800000 38.500000 68 69 68 0
18.040000 8.800000 43.560000 67 68 67 0
18.260000 8.800000 43.560000 69 70 69 0
18.480000 8.800000 43.560000 69 70 69 0
18.700000 8.800000 43.560000 70 71 70 0
18.920000 8.800000 43.560000 70 71 70 0
19.140000 8.800000 43.560000 67 68 67 0
19.360000 8.800000 43.560000 67 68 67 0
19.580000 8.800000 43.560000 65 66 65 0
19.800000 8.800000 43.560000 64 65 64 0
20.020000 8.800000 43.560000 61 62 61 0
20.240000 8.800000 43.560000 64 65 64 0
20.460000 8.800000 43.560000 69 70 69 0
20.680000 8.800000 43.560000 70 71 70 0
20.900000 8.800000 43.560000 71 72 71 0
21.120000 8.800000 43.560000 68 69 68 0
21.340000 8.800000 43.560000 71 72 71 0
21.560000 8.800000 43.560000 71 72 71 0
21.780000 8.800000 43.560000 72 73 72 0
22.000000 8.800000 43.560000 71 72 71 0
22.220000 8.800000 43.560000 71 72 71 0
22.440000 8.800000 43.560000 70 71 70 0
22.660000 8.800000 43.560000 71 72 71 0
22.880000 8.800000 43.560000 74 75 74 0
23.100000 8.800000 43.560000 74 75 74 0
23.320000 8.800000 43.560000 73 74 73 0
23.540000 8.800000 43.560000 73 74 73 0
23.760000 8.800000 43.560000 78 79 78 0
23.980000 8.800000 43.560000 74 75 74 0
24.200000 8.800000 43.560000 78 79 78 0
24.420000 8.800000 43.560000 77 78 77 0
24.640000 8.800000 43.560000 80 81 80 0
24.860000 8.800000 43.560000 81 82 81 0
25.080000 8.800000 43.560000 81 82 81 0
25.300000 8.800000 43.560000 84 85 84 0
25.520000 8.800000 43.560000 85 86 85 0
25.740000 8.800000 43.560000 90 91 90 0
25.960000 8.800000 43.560000 85 86 85 0
26.180000 8.800000 43.560000 82 83 82 0
26.400000 8.800000 43.560000 81 82 81 0
26.620000 8.800000 43.560000 82 83 82 0
26.840000 8.800000 43.560000 83 84 83 0
27.060000 8.800000 43.560000 80 81 80 0
27.280000 8.800000 43.560000 82 83 82 0
27.500000 8.800000 43.560000 82 83 82 0
27.720000 8.800000 43.560000 76 77 76 0
27.940000 8.800000 43.560000 74 75 74 0
28.160000 8.800000 43.560000 72 73 72 0
28.380000 8.800000 43.560000 73 74 73 0
28.600000 8.800000 43.560000 66 67 66 0
28.820000 8.800000 43.560000 63 64 63 0
29.040000 8.800000 43.560000 56 57 56 0
29.260000 8.800000 43.560000 53 54 53 0
29.480000 8.800000 43.560000 51 52 51 0
29.700000 8.800000 43.560000 33 34 33 0
29.920000 8.800000 43.560000 14 15 14 0
30.140000 8.800000 43.560000 12 13 12 0
30.360000 8.800000 41.140000 11 12 11 0
30.580000 8.800000 41.140000 12 13 12 0
30.800000 8.800000 41.140000 13 14 13 0
31.020000 8.800000 34.100000 15 16 15 0
31.240000 8.800000 33.880000 18 19 18 0
31.460000 8.800000 34.100000 22 23 22 0
31.680000 8.800000 33.880000 27 28 27 0
31.900000 8.800000 33.880000 32 33 32 0
32.120000 8.800000 33.880000 35 36 35 0
32.340000 8.800000 26.180000 37 38 37 0
32.560000 8.800000 26.180000 37 38 37 0
32.780000 8.800000 26.180000 39 40 39 0
33.000000 8.800000 25.960000 38 39 38 0
33.220000 8.800000 26.180000 38 39 38 0
33.440000 8.800000 25.960000 38 39 38 0
33.660000 8.800000 25.960000 37 38 37 0
33.880000 8.800000 26.180000 37 38 37 0
34.100000 8.800000 26.400000 38 39 38 0
34.320000 8.800000 26.180000 38 39 38 0
34.540000 8.800000 26.180000 38 39 38 0
34.760000 8.800000 26.180000 38 39 38 0
34.980000 8.800000 26.180000 37 38 37 0
0.000000 9.020000 25.520000 26 27 26 0
0.220000 9.020000 25.520000 27 28 27 0
0.440000 9.020000 33.220000 26 27 26 0
0.660000 9.020000 25.520000 27 28 27 0
0.880000 9.020000 25.740000 29 30 29 0
1.100000 9.020000 25.520000 29 30 29 0
1.320000 9.020000 25.740000 29 30 29 0
1.540000 9.020000 25.740000 30 31 30 0
1.760000 9.020000 25.740000 30 31 30 0
1.980000 9.020000 25.740000 30 31 30 0
2.200000 9.020000 25.740000 30 31 30 0
2.420000 9.020000 25.740000 30 31 30 0
2.640000 9.020000 25.740000 30 31 30 0
2.860000 9.020000 25.960000 31 32 31 0
3.080000 9.020000 25.960000 30 31 30 0
3.300000 9.020000 33.440000 29 30 29 0
3.520000 9.020000 25.740000 30 31 30 0
3.740000 9.020000 25.740000 29 30 29 0
3.960000 9.020000 33.440000 30 31 30 0
4.180000 9.020000 33.440000 30 31 30 0
4.400000 9.020000 33.220000 28 29 28 0
4.620000 9.020000 25.520000 29 30 29 0
4.840000 9.020000 25.740000 29 30 29 0
5.060000 9.020000 25.740000 29 30 29 0
5.280000 9.020000 33.660000 29 30 29 0
5.500000 9.020000 33.440000 29 30 29 0
5.720000 9.020000 33.440000 30 31 30 0
5.940000 9.020000 33.440000 30 31 30 0
6.160000 9.020000 33.660000 30 31 30 0
6.380000 9.020000 33.660000 29 30 29 0
6.600000 9.020000 33.660000 30 31 30 0
6.820000 9.020000 33.440000 30 31 30 0
7.040000 9.020000 33.440000 29 30 29 0
7.260000 9.020000 33.440000 30 31 30 0
7.480000 9.020000 33.440000 30 31 30 0
7.700000 9.020000 33.440000 29 30 29 0
7.920000 9.020000 33.660000 30 31 30 0
8.140000 9.020000 33.440000 30 31 30 0
8.360000 9.020000 33.440000 30 31 30 0
8.580000 9.020000 33.440000 31 32 31 0
8.800000 9.020000 33.440000 31 32 31 0
9.020000 9.020000 33.440000 31 32 31 0
9.240000 9.020000 33.440000 31 32 31 0
9.460000 9.020000 33.440000 30 31 30 0
9.680000 9.020000 33.440000 31 32 31 0
9.900000 9.020000 33.440000 31 32 31 0
10.120000 9.020000 33.660000 31 32 31 0
10.340000 9.020000 33.440000 30 31 30 0
10.560000 9.020000 33.440000 31 32 31 0
10.780000 9.020000 33.440000 31 32 31 0
11.000000 9.020000 33.440000 32 33 32 0
11.220000 9.020000 33.440000 31 32 31 0
11.440000 9.020000 33.440000 31 32 31 0
11.660000 9.020000 33.440000 30 31 30 0
11.880000 9.020000 33.660000 29 30 29 0
12.100000 9.020000 27.280000 33 34 33 0
12.320000 9.020000 43.560000 44 45 44 0
12.540000 9.020000 43.560000 55 56 55 0
12.760000 9.020000 43.560000 64 65 64 0
12.980000 9.020000 43.560000 67 68 67 0
13.200000 9.020000 43.560000 68 69 68 0
13.420000 9.020000 43.560000 63 64 63 0
13.640000 9.020000 43.560000 60 61 60 0
13.860000 9.020000 43.560000 50 51 50 0
14.080000 9.020000 43.560000 47 48 47 0
14.300000 9.020000 43.560000 46 47 46 0
14.520000 9.020000 43.560000 46 47 46 0
14.740000 9.020000 43.560000 45 46 45 0
14.960000 9.020000 43.560000 43 44 43 0
15.180000 9.020000 43.560000 42 43 42 0
15.400000 9.020000 43.560000 41 42 41 0
15.620000 9.020000 43.560000 41 42 41 0
15.840000 9.020000 43.560000 42 43 42 0
16.060000 9.020000 43.560000 41 42 41 0
16.280000 9.020000 43.560000 42 43 42 0
16.500000 9.020000 43.560000 44 45 44 0
16.720000 9.020000 43.560000 48 49 48 0
16.940000 9.020000 43.560000 55 56 55 0
17.160000 9.020000 43.560000 58 59 58 0
17.380000 9.020000 43.560000 65 66 65 0
17.600000 9.020000 37.400000 68 69 68 0
17.820000 9.020000 43.560000 68 69 68 0
18.040000 9.020000 43.560000 69 70 69 0
18.260000 9.020000 43.560000 71 72 71 0
18.480000 9.020000 43.560000 72 73 72 0
18.700000 9.020000 43.560000 72 73 72 0
18.920000 9.020000 43.560000 71 72 71 0
19.140000 9.020000 43.560000 70 71 70 0
19.360000 9.020000 43.560000 70 71 70 0
19.580000 9.020000 43.560000 70 71 70 0
19.800000 9.020000 43.560000 69 70 69 0
20.020000 9.020000 43.560000 69 70 69 0
20.240000 9.020000 43.560000 73 74 73 0
20.460000 9.020000 43.560000 77 78 77 0
20.680000 9.020000 43.560000 76 77 76 0
20.900000 9.020000 43.560000 76 77 76 0
21.120000 9.020000 43.560000 75 76 75 0
21.340000 9.020000 43.560000 81 82 81 0
21.560000 9.020000 43.560000 78 79 78 0
21.780000 9.020000 43.560000 90 91 90 0
22.000000 9.020000 43.560000 79 80 79 0
22.220000 9.020000 43.560000 76 77 76 0
22.440000 9.020000 43.560000 86 87 86 0
22.660000 9.020000 43.560000 81 82 81 0
22.880000 9.020000 43.560000 88 89 88 0
23.100000 9.020000 43.560000 86 87 86 0
23.320000 9.020000 43.560000 81 82 81 0
23.540000 9.020000 43.560000 78 79 78 0
23.760000 9.020000 43.560000 76 77 76 0
23.980000 9.020000 43.560000 76 77 76 0
24.200000 9.020000 43.560000 78 79 78 0
24.420000 9.020000 43.560000 79 80 79 0
24.640000 9.020000 43.560000 82 83 82 0
24.860000 9.020000 43.560000 80 81 80 0
25.080000 9.020000 43.560000 80 81 80 0
25.300000 9.020000 43.560000 86 87 86 0
25.520000 9.020000 43.560000 81 82 81 0
25.740000 9.020000 43.560000 80 81 80 0
25.960000 9.020000 43.560000 83 84 83 0
26.180000 9.020000 43.560000 82 83 82 0
26.400000 9.020000 43.560000 84 85 84 0
26.620000 9.020000 43.560000 84 85 84 0
26.840000 9.020000 43.560000 83 84 83 0
27.060000 9.020000 43.560000 81 82 81 0
27.280000 9.020000 43.560000 87 88 87 0
27.500000 9.020000 43.560000 92 93 92 0
27.720000 9.020000 43.560000 83 84 83 0
27.940000 9.020000 43.560000 79 80 79 0
28.160000 9.020000 43.560000 74 75 74 0
28.380000 9.020000 43.560000 72 73 72 0
28.600000 9.020000 43.560000 76 77 76 0
28.820000 9.020000 43.560000 70 71 70 0
29.040000 9.020000 43.560000 68 69 68 0
29.260000 9.020000 43.560000 64 65 64 0
29.480000 9.020000 43.560000 62 63 62 0
29.700000 9.020000 43.560000 57 58 57 0
29.920000 9.020000 43.560000 49 50 49 0
30.140000 9.020000 43.560000 27 28 27 0
30.360000 9.020000 43.560000 13 14 13 0
30.580000 9.020000 40.920000 11 12 11 0
30.800000 9.020000 40.920000 12 13 12 0
31.020000 9.020000 33.440000 12 13 12 0
31.240000 9.020000 33.660000 13 14 13 0
31.460000 9.020000 33.660000 16 17 16 0
31.680000 9.020000 33.440000 20 21 20 0
31.900000 9.020000 33.440000 25 26 25 0
32.120000 9.020000 25.520000 29 30 29 0
32.340000 9.020000 25.740000 33 34 33 0
32.560000 9.020000 25.740000 36 37 36 0
32.780000 9.020000 25.740000 38 39 38 0
33.000000 9.020000 25.740000 37 38 37 0
33.220000 9.020000 25.740000 38 39 38 0
33.440000 9.020000 25.740000 38 39 38 0
33.660000 9.020000 25.740000 37 38 37 0
33.880000 9.020000 25.740000 37 38 37 0
34.100000 9.020000 25.740000 37 38 37 0
34.320000 9.020000 25.740000 38 39 38 0
34.540000 9.020000 25.960000 38 39 38 0
34.760000 9.020000 25.740000 37 38 37 0
34.980000 9.020000 25.740000 37 38 37 0
0.000000 9.240000 25.080000 27 28 27 0
0.220000 9.240000 25.080000 27 28 27 0
0.440000 9.240000 25.080000 27 28 27 0
0.660000 9.240000 25.080000 28 29 28 0
0.880000 9.240000 24.860000 28 29 28 0
1.100000 9.240000 25.080000 29 30 29 0
1.320000 9.240000 25.080000 29 30 29 0
1.540000 9.240000 25.080000 30 31 30 0
1.760000 9.240000 25.080000 30 31 30 0
1.980000 9.240000 25.300000 30 31 30 0
2.200000 9.240000 25.300000 30 31 30 0
2.420000 9.240000 25.300000 31 32 31 0
2.640000 9.240000 25.300000 30 31 30 0
2.860000 9.240000 25.300000 30 31 30 0
3.080000 9.240000 25.300000 29 30 29 0
3.300000 9.240000 25.300000 29 30 29 0
3.520000 9.240000 25.300000 29 30 29 0
3.740000 9.240000 33.220000 30 31 30 0
3.960000 9.240000 25.300000 30 31 30 0
4.180000 9.240000 33.000000 30 31 30 0
4.400000 9.240000 33.000000 29 30 29 0
4.620000 9.240000 25.300000 30 31 30 0
4.840000 9.240000 25.300000 31 32 31 0
5.060000 9.240000 25.300000 30 31 30 0
5.280000 9.240000 33.000000 30 31 30 0
5.500000 9.240000 33.000000 30 31 30 0
5.720000 9.240000 33.220000 31 32 31 0
5.940000 9.240000 33.000000 31 32 31 0
6.160000 9.240000 33.000000 30 31 30 0
6.380000 9.240000 33.000000 30 31 30 0
6.600000 9.240000 33.000000 30 31 30 0
6.820000 9.240000 33.220000 30 31 30 0
7.040000 9.240000 33.000000 30 31 30 0
7.260000 9.240000 33.220000 29 30 29 0
7.480000 9.240000 33.000000 31 32 31 0
7.700000 9.240000 33.000000 30 31 30 0
7.920000 9.240000 33.220000 30 31 30 0
8.140000 9.240000 33.220000 30 31 30 0
8.360000 9.240000 33.000000 30 31 30 0
8.580000 9.240000 33.000000 30 31 30 0
8.800000 9.240000 33.000000 31 32 31 0
9.020000 9.240000 33.000000 30 31 30 0
9.240000 9.240000 33.220000 30 31 30 0
9.460000 9.240000 33.000000 31 32 31 0
9.680000 9.240000 33.000000 31 32 31 0
9.900000 9.240000 33.000000 31 32 31 0
10.120000 9.240000 33.220000 31 32 31 0
10.340000 9.240000 33.000000 30 31 30 0
10.560000 9.240000 33.000000 30 31 30 0
10.780000 9.240000 33.000000 31 32 31 0
11.000000 9.240000 33.000000 31 32 31 0
11.220000 9.240000 33.000000 31 32 31 0
11.440000 9.240000 33.220000 32 33 32 0
11.660000 9.240000 33.660000 31 32 31 0
11.880000 9.240000 26.620000 39 40 39 0
12.100000 9.240000 43.560000 67 68 67 0
12.320000 9.240000 43.560000 83 84 83 0
12.540000 9.240000 43.560000 88 89 88 0
12.760000 9.240000 43.560000 86 87 86 0
12.980000 9.240000 43.560000 81 82 81 0
13.200000 9.240000 43.560000 72 73 72 0
13.420000 9.240000 43.560000 63 64 63 0
13.640000 9.240000 43.560000 57 58 57 0
13.860000 9.240000 43.560000 53 54 53 0
14.080000 9.240000 43.560000 50 51 50 0
14.300000 9.240000 43.560000 49 50 49 0
14.520000 9.240000 43.560000 49 50 49 0
14.740000 9.240000 43.560000 47 48 47 0
14.960000 9.240000 43.560000 46 47 46 0
15.180000 9.240000 43.560000 43 44 43 0
15.400000 9.240000 43.560000 40 41 40 0
15.620000 9.240000 43.560000 39 40 39 0
15.840000 9.240000 43.560000 39 40 39 0
16.060000 9.240000 43.560000 39 40 39 0
16.280000 9.240000 43.560000 40 41 40 0
16.500000 9.240000 43.560000 43 44 43 0
16.720000 9.240000 43.560000 49 50 49 0
16.940000 9.240000 43.560000 56 57 56 0
17.160000 9.240000 43.560000 62 63 62 0
17.380000 9.240000 43.560000 66 67 66 0
17.600000 9.240000 43.560000 69 70 69 0
17.820000 9.240000 43.560000 71 72 71 0
18.040000 9.240000 43.120000 75 76 75 0
18.260000 9.240000 42.900000 77 78 77 0
18.480000 9.240000 42.680000 78 79 78 0
18.700000 9.240000 43.560000 77 78 77 0
18.920000 9.240000 43.560000 75 76 75 0
19.140000 9.240000 43.560000 77 78 77 0
19.360000 9.240000 43.560000 75 76 75 0
19.580000 9.240000 43.560000 76 77 76 0
19.800000 9.240000 43.560000 74 75 74 0
20.020000 9.240000 43.560000 76 77 76 0
20.240000 9.240000 43.560000 79 80 79 0
20.460000 9.240000 43.560000 80 81 80 0
20.680000 9.240000 43.560000 79 80 79 0
20.900000 9.240000 43.560000 81 82 81 0
21.120000 9.240000 43.560000 81 82 81 0
21.340000 9.240000 43.560000 80 81 80 0
21.560000 9.240000 43.560000 81 82 81 0
21.780000 9.240000 43.560000 86 87 86 0
22.000000 9.240000 43.560000 87 88 87 0
22.220000 9.240000 43.560000 82 83 82 0
22.440000 9.240000 43.560000 88 89 88 0
22.660000 9.240000 43.560000 113 114 113 0
22.880000 9.240000 43.560000 121 122 121 0
23.100000 9.240000 43.560000 114 115 114 0
23.320000 9.240000 43.560000 103 104 103 0
23.540000 9.240000 43.560000 93 94 93 0
23.760000 9.240000 43.560000 83 84 83 0
23.980000 9.240000 43.560000 81 82 81 0
24.200000 9.240000 43.560000 82 83 82 0
24.420000 9.240000 43.560000 78 79 78 0
24.640000 9.240000 43.560000 77 78 77 0
24.860000 9.240000 43.560000 82 83 82 0
25.080000 9.240000 43.560000 81 82 81 0
25.300000 9.240000 43.560000 81 82 81 0
25.520000 9.240000 43.560000 78 79 78 0
25.740000 9.240000 43.560000 80 81 80 0
25.960000 9.240000 43.560000 82 83 82 0
26.180000 9.240000 43.560000 84 85 84 0
26.400000 9.240000 43.560000 85 86 85 0
26.620000 9.240000 43.560000 82 83 82 0
26.840000 9.240000 43.560000 80 81 80 0
27.060000 9.240000 43.560000 80 81 80 0
27.280000 9.240000 43.560000 85 86 85 0
27.500000 9.240000 43.560000 83 84 83 0
27.720000 9.240000 43.560000 85 86 85 0
27.940000 9.240000 43.560000 90 91 90 0
28.160000 9.240000 43.560000 75 76 75 0
28.380000 9.240000 43.560000 72 73 72 0
28.600000 9.240000 43.560000 74 75 74 0
28.820000 9.240000 43.560000 72 73 72 0
29.040000 9.240000 43.560000 71 72 71 0
29.260000 9.240000 43.560000 69 70 69 0
29.480000 9.240000 43.560000 67 68 67 0
29.700000 9.240000 43.560000 66 67 66 0
29.920000 9.240000 43.560000 66 67 66 0
30.140000 9.240000 43.560000 60 61 60 0
30.360000 9.240000 43.560000 40 41 40 0
30.580000 9.240000 43.560000 16 17 16 0
30.800000 9.240000 40.260000 12 13 12 0
31.020000 9.240000 40.480000 12 13 12 0
31.240000 9.240000 40.480000 12 13 12 0
31.460000 9.240000 40.480000 13 14 13 0
31.680000 9.240000 33.220000 14 15 14 0
31.900000 9.240000 33.000000 19 20 19 0
32.120000 9.240000 33.000000 22 23 22 0
32.340000 9.240000 33.220000 28 29 28 0
32.560000 9.240000 25.300000 31 32 31 0
32.780000 9.240000 25.300000 34 35 34 0
33.000000 9.240000 25.080000 36 37 36 0
33.220000 9.240000 25.300000 38 39 38 0
33.440000 9.240000 25.080000 37 38 37 0
33.660000 9.240000 25.300000 38 39 38 0
33.880000 9.240000 25.300000 38 39 38 0
34.100000 9.240000 25.300000 36 37 36 0
34.320000 9.240000 25.300000 38 39 38 0
34.540000 9.240000 25.300000 38 39 38 0
34.760000 9.240000 25.300000 37 38 37 0
34.980000 9.240000 25.300000 38 39 38 0
0.000000 9.460000 24.420000 27 28 27 0
0.220000 9.460000 32.560000 27 28 27 0
0.440000 9.460000 24.640000 26 27 26 0
0.660000 9.460000 24.640000 28 29 28 0
0.880000 9.460000 24.640000 28 29 28 0
1.100000 9.460000 24.420000 28 29 28 0
1.320000 9.460000 24.640000 28 29 28 0
1.540000 9.460000 24.640000 29 30 29 0
1.760000 9.460000 24.640000 29 30 29 0
1.980000 9.460000 32.560000 28 29 28 0
2.200000 9.460000 24.860000 30 31 30 0
2.420000 9.460000 24.860000 30 31 30 0
2.640000 9.460000 32.780000 30 31 30 0
2.860000 9.460000 24.640000 29 30 29 0
3.080000 9.460000 24.860000 30 31 30 0
3.300000 9.460000 24.860000 30 31 30 0
3.520000 9.460000 32.780000 29 30 29 0
3.740000 9.460000 32.780000 30 31 30 0
3.960000 9.460000 32.780000 31 32 31 0
4.180000 9.460000 24.860000 30 31 30 0
4.400000 9.460000 24.860000 30 31 30 0
4.620000 9.460000 24.640000 29 30 29 0
4.840000 9.460000 32.780000 30 31 30 0
5.060000 9.460000 32.780000 29 30 29 0
5.280000 9.460000 32.780000 29 30 29 0
5.500000 9.460000 32.780000 30 31 30 0
5.720000 9.460000 32.780000 30 31 30 0
5.940000 9.460000 33.000000 30 31 30 0
6.160000 9.460000 32.780000 29 30 29 0
6.380000 9.460000 32.560000 29 30 29 0
6.600000 9.460000 32.560000 29 30 29 0
6.820000 9.460000 32.780000 30 31 30 0
7.040000 9.460000 32.780000 30 31 30 0
7.260000 9.460000 32.780000 30 31 30 0
7.480000 9.460000 32.780000 30 31 30 0
7.700000 9.460000 32.560000 29 30 29 0
7.920000 9.460000 32.780000 31 32 31 0
8.140000 9.460000 32.780000 30 31 30 0
8.360000 9.460000 32.780000 31 32 31 0
8.580000 9.460000 32.780000 30 31 30 0
8.800000 9.460000 32.780000 30 31 30 0
9.020000 9.460000 32.780000 29 30 29 0
9.240000 9.460000 32.780000 31 32 31 0
9.460000 9.460000 32.780000 31 32 31 0
9.680000 9.460000 32.560000 31 32 31 0
9.900000 9.460000 32.780000 30 31 30 0
10.120000 9.460000 32.780000 31 32 31 0
10.340000 9.460000 32.780000 30 31 30 0
10.560000 9.460000 32.560000 31 32 31 0
10.780000 9.460000 32.780000 31 32 31 0
11.000000 9.460000 32.780000 31 32 31 0
11.220000 9.460000 32.780000 32 33 32 0
11.440000 9.460000 33.000000 31 32 31 0
11.660000 9.460000 33.880000 44 45 44 0
11.880000 9.460000 43.560000 72 73 72 0
12.100000 9.460000 43.560000 80 81 80 0
12.320000 9.460000 43.560000 80 81 80 0
12.540000 9.460000 43.560000 75 76 75 0
12.760000 9.460000 43.560000 66 67 66 0
12.980000 9.460000 43.560000 58 59 58 0
13.200000 9.460000 43.560000 51 52 51 0
13.420000 9.460000 43.560000 48 49 48 0
13.640000 9.460000 43.560000 46 47 46 0
13.860000 9.460000 43.560000 45 46 45 0
14.080000 9.460000 43.560000 46 47 46 0
14.300000 9.460000 43.560000 47 48 47 0
14.520000 9.460000 43.560000 50 51 50 0
14.740000 9.460000 43.560000 53 54 53 0
14.960000 9.460000 43.560000 56 57 56 0
15.180000 9.460000 43.560000 61 62 61 0
15.400000 9.460000 43.560000 63 64 63 0
15.620000 9.460000 43.560000 60 61 60 0
15.840000 9.460000 43.560000 53 54 53 0
16.060000 9.460000 43.560000 42 43 42 0
16.280000 9.460000 43.560000 40 41 40 0
16.500000 9.460000 43.560000 39 40 39 0
16.720000 9.460000 43.560000 41 42 41 0
16.940000 9.460000 43.560000 43 44 43 0
17.160000 9.460000 43.560000 50 51 50 0
17.380000 9.460000 43.560000 61 62 61 0
17.600000 9.460000 43.560000 68 69 68 0
17.820000 9.460000 43.560000 74 75 74 0
18.040000 9.460000 43.560000 79 80 79 0
18.260000 9.460000 43.560000 82 83 82 0
18.480000 9.460000 43.560000 85 86 85 0
18.700000 9.460000 43.560000 86 87 86 0
18.920000 9.460000 43.560000 83 84 83 0
19.140000 9.460000 43.560000 84 85 84 0
19.360000 9.460000 43.560000 82 83 82 0
19.580000 9.460000 43.560000 82 83 82 0
19.800000 9.460000 43.560000 80 81 80 0
20.020000 9.460000 43.560000 80 81 80 0
20.240000 9.460000 43.560000 83 84 83 0
20.460000 9.460000 43.560000 83 84 83 0
20.680000 9.460000 43.560000 83 84 83 0
20.900000 9.460000 43.560000 85 86 85 0
21.120000 9.460000 43.560000 83 84 83 0
21.340000 9.460000 43.560000 84 85 84 0
21.560000 9.460000 43.560000 82 83 82 0
21.780000 9.460000 43.560000 82 83 82 0
22.000000 9.460000 43.560000 77 78 77 0
22.220000 9.460000 43.560000 78 79 78 0
22.440000 9.460000 43.560000 99 100 99 0
22.660000 9.460000 43.560000 112 113 112 0
22.880000 9.460000 43.560000 106 107 106 0
23.100000 9.460000 43.560000 99 100 99 0
23.320000 9.460000 43.560000 91 92 91 0
23.540000 9.460000 43.560000 84 85 84 0
23.760000 9.460000 43.560000 77 78 77 0
23.980000 9.460000 43.560000 72 73 72 0
24.200000 9.460000 43.560000 71 72 71 0
24.420000 9.460000 43.560000 71 72 71 0
24.640000 9.460000 43.560000 72 73 72 0
24.860000 9.460000 43.560000 74 75 74 0
25.080000 9.460000 43.560000 80 81 80 0
25.300000 9.460000 43.560000 82 83 82 0
25.520000 9.460000 43.560000 77 78 77 0
25.740000 9.460000 43.560000 78 79 78 0
25.960000 9.460000 43.560000 83 84 83 0
26.180000 9.460000 43.560000 81 82 81 0
26.400000 9.460000 43.560000 82 83 82 0
26.620000 9.460000 43.560000 80 81 80 0
26.840000 9.460000 43.560000 78 79 78 0
27.060000 9.460000 43.560000 77 78 77 0
27.280000 9.460000 43.560000 76 77 76 0
27.500000 9.460000 43.560000 78 79 78 0
27.720000 9.460000 43.560000 78 79 78 0
27.940000 9.460000 43.560000 77 78 77 0
28.160000 9.460000 43.560000 72 73 72 0
28.380000 9.460000 43.560000 70 71 70 0
28.600000 9.460000 43.560000 71 72 71 0
28.820000 9.460000 43.560000 68 69 68 0
29.040000 9.460000 43.560000 65 66 65 0
29.260000 9.460000 43.560000 69 70 69 0
29.480000 9.460000 43.560000 69 70 69 0
29.700000 9.460000 43.560000 88 89 88 0
29.920000 9.460000 43.560000 77 78 77 0
30.140000 9.460000 43.560000 65 66 65 0
30.360000 9.460000 43.560000 67 68 67 0
30.580000 9.460000 43.560000 58 59 58 0
30.800000 9.460000 43.560000 25 26 25 0
31.020000 9.460000 40.040000 12 13 12 0
31.240000 9.460000 39.820000 12 13 12 0
31.460000 9.460000 40.040000 11 12 11 0
31.680000 9.460000 40.040000 12 13 12 0
31.900000 9.460000 32.780000 14 15 14 0
32.120000 9.460000 32.780000 18 19 18 0
32.340000 9.460000 32.780000 21 22 21 0
32.560000 9.460000 32.780000 25 26 25 0
32.780000 9.460000 32.560000 30 31 30 0
33.000000 9.460000 24.860000 33 34 33 0
33.220000 9.460000 24.640000 36 37 36 0
33.440000 9.460000 24.640000 37 38 37 0
33.660000 9.460000 24.860000 37 38 37 0
33.880000 9.460000 24.860000 37 38 37 0
34.100000 9.460000 24.860000 37 38 37 0
34.320000 9.460000 24.860000 38 39 38 0
34.540000 9.460000 24.860000 38 39 38 0
34.760000 9.460000 24.860000 37 38 37 0
34.980000 9.460000 24.860000 37 38 37 0
0.000000 9.680000 24.200000 27 28 27 0
0.220000 9.680000 24.200000 28 29 28 0
0.440000 9.680000 24.200000 26 27 26 0
0.660000 9.680000 24.200000 27 28 27 0
0.880000 9.680000 23.980000 28 29 28 0
1.100000 9.680000 24.200000 28 29 28 0
1.320000 9.680000 23.980000 29 30 29 0
1.540000 9.680000 32.120000 29 30 29 0
1.760000 9.680000 32.120000 28 29 28 0
1.980000 9.680000 24.420000 30 31 30 0
2.200000 9.680000 24.200000 29 30 29 0
2.420000 9.680000 24.200000 29 30 29 0
2.640000 9.680000 24.420000 30 31 30 0
2.860000 9.680000 24.200000 31 32 31 0
3.080000 9.680000 24.420000 30 31 30 0
3.300000 9.680000 24.420000 30 31 30 0
3.520000 9.680000 24.420000 30 31 30 0
3.740000 9.680000 24.420000 29 30 29 0
3.960000 9.680000 24.420000 30 31 30 0
4.180000 9.680000 32.340000 30 31 30 0
4.400000 9.680000 32.340000 30 31 30 0
4.620000 9.680000 24.640000 30 31 30 0
4.840000 9.680000 32.340000 29 30 29 0
5.060000 9.680000 32.340000 29 30 29 0
5.280000 9.680000 32.560000 30 31 30 0
5.500000 9.680000 32.120000 30 31 30 0
5.720000 9.680000 32.340000 30 31 30 0
5.940000 9.680000 32.340000 30 31 30 0
6.160000 9.680000 32.340000 29 30 29 0
6.380000 9.680000 32.120000 29 30 29 0
6.600000 9.680000 32.340000 30 31 30 0
6.820000 9.680000 32.340000 31 32 31 0
7.040000 9.680000 32.340000 30 31 30 0
7.260000 9.680000 32.340000 30 31 30 0
7.480000 9.680000 32.340000 30 31 30 0
7.700000 9.680000 32.340000 30 31 30 0
7.920000 9.680000 32.340000 30 31 30 0
8.140000 9.680000 32.340000 30 31 30 0
8.360000 9.680000 32.340000 31 32 31 0
8.580000 9.680000 32.340000 31 32 31 0
8.800000 9.680000 32.340000 30 31 30 0
9.020000 9.680000 32.120000 29 30 29 0
9.240000 9.680000 32.340000 30 31 30 0
9.460000 9.680000 32.340000 30 31 30 0
9.680000 9.680000 32.340000 30 31 30 0
9.900000 9.680000 32.340000 31 32 31 0
10.120000 9.680000 32.340000 31 32 31 0
10.340000 9.680000 32.120000 31 32 31 0
10.560000 9.680000 32.340000 30 31 30 0
10.780000 9.680000 32.340000 31 32 31 0
11.000000 9.680000 32.340000 31 32 31 0
11.220000 9.680000 32.560000 32 33 32 0
11.440000 9.680000 33.000000 40 41 40 0
11.660000 9.680000 43.560000 66 67 66 0
11.880000 9.680000 43.560000 74 75 74 0
12.100000 9.680000 43.560000 70 71 70 0
12.320000 9.680000 43.560000 62 63 62 0
12.540000 9.680000 43.560000 53 54 53 0
12.760000 9.680000 43.560000 47 48 47 0
12.980000 9.680000 43.560000 44 45 44 0
13.200000 9.680000 43.560000 43 44 43 0
13.420000 9.680000 43.560000 43 44 43 0
13.640000 9.680000 43.560000 43 44 43 0
13.860000 9.680000 43.560000 45 46 45 0
14.080000 9.680000 43.560000 49 50 49 0
14.300000 9.680000 43.560000 52 53 52 0
14.520000 9.680000 43.560000 57 58 57 0
14.740000 9.680000 43.560000 62 63 62 0
14.960000 9.680000 43.560000 68 69 68 0
15.180000 9.680000 43.560000 74 75 74 0
15.400000 9.680000 43.560000 79 80 79 0
15.620000 9.680000 43.560000 87 88 87 0
15.840000 9.680000 43.560000 94 95 94 0
16.060000 9.680000 43.560000 99 100 99 0
16.280000 9.680000 43.560000 93 94 93 0
16.500000 9.680000 43.560000 75 76 75 0
16.720000 9.680000 43.560000 53 54 53 0
16.940000 9.680000 43.560000 44 45 44 0
17.160000 9.680000 43.560000 44 45 44 0
17.380000 9.680000 43.560000 47 48 47 0
17.600000 9.680000 43.560000 54 55 54 0
17.820000 9.680000 43.560000 66 67 66 0
18.040000 9.680000 43.560000 77 78 77 0
18.260000 9.680000 43.560000 80 81 80 0
18.480000 9.680000 43.560000 80 81 80 0
18.700000 9.680000 43.560000 89 90 89 0
18.920000 9.680000 43.560000 86 87 86 0
19.140000 9.680000 43.560000 85 86 85 0
19.360000 9.680000 43.560000 86 87 86 0
19.580000 9.680000 43.560000 87 88 87 0
19.800000 9.680000 43.560000 89 90 89 0
20.020000 9.680000 43.560000 90 91 90 0
20.240000 9.680000 43.560000 86 87 86 0
20.460000 9.680000 43.560000 85 86 85 0
20.680000 9.680000 43.560000 83 84 83 0
20.900000 9.680000 43.560000 84 85 84 0
21.120000 9.680000 43.560000 82 83 82 0
21.340000 9.680000 43.560000 80 81 80 0
21.560000 9.680000 43.560000 82 83 82 0
21.780000 9.680000 43.560000 87 88 87 0
22.000000 9.680000 43.560000 77 78 77 0
22.220000 9.680000 43.560000 82 83 82 0
22.440000 9.680000 43.560000 93 94 93 0
22.660000 9.680000 43.560000 89 90 89 0
22.880000 9.680000 43.560000 83 84 83 0
23.100000 9.680000 43.560000 77 78 77 0
23.320000 9.680000 43.560000 72 73 72 0
23.540000 9.680000 43.560000 70 71 70 0
23.760000 9.680000 43.560000 67 68 67 0
23.980000 9.680000 43.560000 66 67 66 0
24.200000 9.680000 43.560000 67 68 67 0
24.420000 9.680000 43.560000 66 67 66 0
24.640000 9.680000 43.560000 66 67 66 0
24.860000 9.680000 43.560000 67 68 67 0
25.080000 9.680000 43.560000 68 69 68 0
25.300000 9.680000 43.560000 73 74 73 0
25.520000 9.680000 43.560000 77 78 77 0
25.740000 9.680000 43.560000 81 82 81 0
25.960000 9.680000 43.560000 86 87 86 0
26.180000 9.680000 43.560000 85 86 85 0
26.400000 9.680000 43.560000 87 88 87 0
26.620000 9.680000 43.560000 90 91 90 0
26.840000 9.680000 43.560000 82 83 82 0
27.060000 9.680000 43.560000 76 77 76 0
27.280000 9.680000 43.560000 75 76 75 0
27.500000 9.680000 43.560000 73 74 73 0
27.720000 9.680000 43.560000 71 72 71 0
27.940000 9.680000 43.560000 71 72 71 0
28.160000 9.680000 43.560000 70 71 70 0
28.380000 9.680000 43.560000 71 72 71 0
28.600000 9.680000 43.560000 70 71 70 0
28.820000 9.680000 43.560000 66 67 66 0
29.040000 9.680000 43.560000 61 62 61 0
29.260000 9.680000 43.560000 60 61 60 0
29.480000 9.680000 43.560000 61 62 61 0
29.700000 9.680000 43.560000 69 70 69 0
29.920000 9.680000 43.560000 67 68 67 0
30.140000 9.680000 43.560000 66 67 66 0
30.360000 9.680000 43.560000 68 69 68 0
30.580000 9.680000 43.560000 68 69 68 0
30.800000 9.680000 43.560000 61 62 61 0
31.020000 9.680000 43.560000 39 40 39 0
31.240000 9.680000 43.560000 14 15 14 0
31.460000 9.680000 39.600000 11 12 11 0
31.680000 9.680000 39.600000 11 12 11 0
31.900000 9.680000 39.600000 12 13 12 0
32.120000 9.680000 32.340000 13 14 13 0
32.340000 9.680000 32.560000 16 17 16 0
32.560000 9.680000 32.560000 19 20 19 0
32.780000 9.680000 32.120000 22 23 22 0
33.000000 9.680000 32.120000 28 29 28 0
33.220000 9.680000 24.420000 31 32 31 0
33.440000 9.680000 24.420000 34 35 34 0
33.660000 9.680000 24.420000 36 37 36 0
33.880000 9.680000 24.200000 36 37 36 0
34.100000 9.680000 24.420000 37 38 37 0
34.320000 9.680000 24.200000 37 38 37 0
34.540000 9.680000 24.420000 38 39 38 0
34.760000 9.680000 24.420000 38 39 38 0
34.980000 9.680000 24.420000 38 39 38 0
0.000000 9.900000 23.980000 27 28 27 0
0.220000 9.900000 23.980000 27 28 27 0
0.440000 9.900000 23.980000 28 29 28 0
0.660000 9.900000 23.760000 28 29 28 0
0.880000 9.900000 23.540000 29 30 29 0
1.100000 9.900000 23.760000 28 29 28 0
1.320000 9.900000 23.540000 29 30 29 0
1.540000 9.900000 23.760000 29 30 29 0
1.760000 9.900000 23.760000 28 29 28 0
1.980000 9.900000 31.900000 29 30 29 0
2.200000 9.900000 23.760000 29 30 29 0
2.420000 9.900000 23.980000 30 31 30 0
2.640000 9.900000 23.760000 31 32 31 0
2.860000 9.900000 23.980000 31 32 31 0
3.080000 9.900000 32.120000 31 32 31 0
3.300000 9.900000 32.120000 30 31 30 0
3.520000 9.900000 32.120000 30 31 30 0
3.740000 9.900000 24.200000 30 31 30 0
3.960000 9.900000 32.120000 31 32 31 0
4.180000 9.900000 32.120000 31 32 31 0
4.400000 9.900000 32.120000 30 31 30 0
4.620000 9.900000 32.120000 30 31 30 0
4.840000 9.900000 31.900000 29 30 29 0
5.060000 9.900000 31.900000 29 30 29 0
5.280000 9.900000 31.900000 30 31 30 0
5.500000 9.900000 31.900000 30 31 30 0
5.720000 9.900000 31.900000 29 30 29 0
5.940000 9.900000 32.120000 29 30 29 0
6.160000 9.900000 32.120000 30 31 30 0
6.380000 9.900000 32.120000 31 32 31 0
6.600000 9.900000 32.120000 30 31 30 0
6.820000 9.900000 32.120000 30 31 30 0
7.040000 9.900000 32.120000 30 31 30 0
7.260000 9.900000 32.120000 31 32 31 0
7.480000 9.900000 32.120000 31 32 31 0
7.700000 9.900000 32.120000 31 32 31 0
7.920000 9.900000 31.900000 30 31 30 0
8.140000 9.900000 32.120000 30 31 30 0
8.360000 9.900000 31.900000 30 31 30 0
8.580000 9.900000 31.900000 31 32 31 0
8.800000 9.900000 31.900000 31 32 31 0
9.020000 9.900000 31.900000 31 32 31 0
9.240000 9.900000 32.120000 30 31 30 0
9.460000 9.900000 32.120000 31 32 31 0
9.680000 9.900000 31.900000 31 32 31 0
9.900000 9.900000 31.900000 30 31 30 0
10.120000 9.900000 32.120000 31 32 31 0
10.340000 9.900000 31.900000 31 32 31 0
10.560000 9.900000 32.120000 31 32 31 0
10.780000 9.900000 31.900000 31 32 31 0
11.000000 9.900000 31.900000 30 31 30 0
11.220000 9.900000 32.340000 34 35 34 0
11.440000 9.900000 43.560000 59 60 59 0
11.660000 9.900000 43.560000 66 67 66 0
11.880000 9.900000 43.560000 59 60 59 0
12.100000 9.900000 43.560000 49 50 49 0
12.320000 9.900000 43.560000 43 44 43 0
12.540000 9.900000 43.560000 42 43 42 0
12.760000 9.900000 43.560000 41 42 41 0
12.980000 9.900000 43.560000 40 41 40 0
13.200000 9.900000 43.560000 43 44 43 0
13.420000 9.900000 43.560000 44 45 44 0
13.640000 9.900000 43.560000 48 49 48 0
13.860000 9.900000 43.560000 53 54 53 0
14.080000 9.900000 43.560000 59 60 59 0
14.300000 9.900000 43.560000 64 65 64 0
14.520000 9.900000 43.560000 70 71 70 0
14.740000 9.900000 43.560000 80 81 80 0
14.960000 9.900000 43.560000 87 88 87 0
15.180000 9.900000 43.560000 94 95 94 0
15.400000 9.900000 43.560000 102 103 102 0
15.620000 9.900000 43.560000 110 111 110 0
15.840000 9.900000 43.560000 118 119 118 0
16.060000 9.900000 43.560000 125 126 125 0
16.280000 9.900000 43.560000 133 134 133 0
16.500000 9.900000 43.560000 142 143 142 0
16.720000 9.900000 43.560000 144 145 144 0
16.940000 9.900000 43.560000 125 126 125 0
17.160000 9.900000 43.560000 90 91 90 0
17.380000 9.900000 43.560000 56 57 56 0
17.600000 9.900000 43.560000 49 50 49 0
17.820000 9.900000 43.560000 51 52 51 0
18.040000 9.900000 43.560000 57 58 57 0
18.260000 9.900000 43.560000 69 70 69 0
18.480000 9.900000 43.560000 72 73 72 0
18.700000 9.900000 43.560000 78 79 78 0
18.920000 9.900000 43.560000 81 82 81 0
19.140000 9.900000 43.560000 83 84 83 0
19.360000 9.900000 43.560000 85 86 85 0
19.580000 9.900000 43.560000 87 88 87 0
19.800000 9.900000 43.560000 87 88 87 0
20.020000 9.900000 43.560000 87 88 87 0
20.240000 9.900000 43.560000 85 86 85 0
20.460000 9.900000 43.560000 84 85 84 0
20.680000 9.900000 43.560000 82 83 82 0
20.900000 9.900000 43.560000 83 84 83 0
21.120000 9.900000 43.560000 82 83 82 0
21.340000 9.900000 43.560000 79 80 79 0
21.560000 9.900000 43.560000 76 77 76 0
21.780000 9.900000 43.560000 76 77 76 0
22.000000 9.900000 43.560000 74 75 74 0
22.220000 9.900000 43.560000 77 78 77 0
22.440000 9.900000 43.560000 76 77 76 0
22.660000 9.900000 43.560000 71 72 71 0
22.880000 9.900000 43.560000 68 69 68 0
23.100000 9.900000 43.560000 66 67 66 0
23.320000 9.900000 43.560000 64 65 64 0
23.540000 9.900000 43.560000 64 65 64 0
23.760000 9.900000 43.560000 64 65 64 0
23.980000 9.900000 43.560000 64 65 64 0
24.200000 9.900000 43.560000 65 66 65 0
24.420000 9.900000 43.560000 67 68 67 0
24.640000 9.900000 43.560000 71 72 71 0
24.860000 9.900000 43.560000 74 75 74 0
25.080000 9.900000 43.560000 78 79 78 0
25.300000 9.900000 43.560000 83 84 83 0
25.520000 9.900000 43.560000 88 89 88 0
25.740000 9.900000 43.560000 93 94 93 0
25.960000 9.900000 43.560000 99 100 99 0
26.180000 9.900000 43.560000 106 107 106 0
26.400000 9.900000 43.560000 113 114 113 0
26.620000 9.900000 43.560000 118 119 118 0
26.840000 9.900000 43.560000 121 122 121 0
27.060000 9.900000 43.560000 120 121 120 0
27.280000 9.900000 43.560000 116 117 116 0
27.500000 9.900000 43.560000 108 109 108 0
27.720000 9.900000 43.560000 98 99 98 0
27.940000 9.900000 43.560000 88 89 88 0
28.160000 9.900000 43.560000 85 86 85 0
28.380000 9.900000 43.560000 94 95 94 0
28.600000 9.900000 43.560000 82 83 82 0
28.820000 9.900000 43.560000 66 67 66 0
29.040000 9.900000 43.560000 60 61 60 0
29.260000 9.900000 43.560000 55 56 55 0
29.480000 9.900000 43.560000 54 55 54 0
29.700000 9.900000 43.560000 56 57 56 0
29.920000 9.900000 43.560000 56 57 56 0
30.140000 9.900000 43.560000 58 59 58 0
30.360000 9.900000 43.560000 58 59 58 0
30.580000 9.900000 43.560000 60 61 60 0
30.800000 9.900000 43.560000 63 64 63 0
31.020000 9.900000 43.560000 66 67 66 0
31.240000 9.900000 43.560000 49 50 49 0
31.460000 9.900000 43.560000 18 19 18 0
31.680000 9.900000 43.560000 12 13 12 0
31.900000 9.900000 39.160000 12 13 12 0
32.120000 9.900000 39.380000 13 14 13 0
32.340000 9.900000 39.600000 13 14 13 0
32.560000 9.900000 32.560000 14 15 14 0
32.780000 9.900000 32.340000 18 19 18 0
33.000000 9.900000 32.340000 21 22 21 0
33.220000 9.900000 31.900000 26 27 26 0
33.440000 9.900000 32.340000 29 30 29 0
33.660000 9.900000 32.120000 33 34 33 0
33.880000 9.900000 23.980000 36 37 36 0
34.100000 9.900000 23.980000 37 38 37 0
34.320000 9.900000 23.980000 37 38 37 0
34.540000 9.900000 24.200000 38 39 38 0
34.760000 9.900000 24.200000 38 39 38 0
34.980000 9.900000 23.980000 38 39 38 0
0.000000 10.120000 23.540000 27 28 27 0
0.220000 10.120000 23.540000 29 30 29 0
0.440000 10.120000 23.540000 29 30 29 0
0.660000 10.120000 23.320000 29 30 29 0
0.880000 10.120000 23.320000 29 30 29 0
1.100000 10.120000 23.100000 28 29 28 0
1.320000 10.120000 23.320000 28 29 28 0
1.540000 10.120000 23.320000 29 30 29 0
1.760000 10.120000 23.320000 29 30 29 0
1.980000 10.120000 31.460000 29 30 29 0
2.200000 10.120000 31.460000 30 31 30 0
2.420000 10.120000 31.460000 29 30 29 0
2.640000 10.120000 31.460000 29 30 29 0
2.860000 10.120000 31.460000 30 31 30 0
3.080000 10.120000 31.680000 31 32 31 0
3.300000 10.120000 31.680000 31 32 31 0
3.520000 10.120000 23.760000 32 33 32 0
3.740000 10.120000 31.900000 33 34 33 0
3.960000 10.120000 31.680000 32 33 32 0
4.180000 10.120000 31.680000 31 32 31 0
4.400000 10.120000 31.680000 31 32 31 0
4.620000 10.120000 31.680000 31 32 31 0
4.840000 10.120000 31.680000 30 31 30 0
5.060000 10.120000 31.680000 30 31 30 0
5.280000 10.120000 31.900000 31 32 31 0
5.500000 10.120000 31.680000 31 32 31 0
5.720000 10.120000 31.680000 31 32 31 0
5.940000 10.120000 31.680000 30 31 30 0
6.160000 10.120000 31.680000 29 30 29 0
6.380000 10.120000 31.680000 31 32 31 0
6.600000 10.120000 31.680000 31 32 31 0
6.820000 10.120000 31.680000 31 32 31 0
7.040000 10.120000 31.460000 30 31 30 0
7.260000 10.120000 31.680000 30 31 30 0
7.480000 10.120000 31.680000 31 32 31 0
7.700000 10.120000 31.900000 31 32 31 0
7.920000 10.120000 31.680000 30 31 30 0
8.140000 10.120000 31.680000 30 31 30 0
8.360000 10.120000 31.680000 31 32 31 0
8.580000 10.120000 31.680000 31 32 31 0
8.800000 10.120000 31.680000 31 32 31 0
9.020000 10.120000 31.680000 31 32 31 0
9.240000 10.120000 31.680000 31 32 31 0
9.460000 10.120000 31.680000 31 32 31 0
9.680000 10.120000 31.680000 30 31 30 0
9.900000 10.120000 31.680000 31 32 31 0
10.120000 10.120000 31.460000 31 32 31 0
10.340000 10.120000 31.680000 31 32 31 0
10.560000 10.120000 31.680000 31 32 31 0
10.780000 10.120000 31.680000 31 32 31 0
11.000000 10.120000 31.900000 33 34 33 0
11.220000 10.120000 31.680000 49 50 49 0
11.440000 10.120000 43.560000 57 58 57 0
11.660000 10.120000 43.560000 48 49 48 0
11.880000 10.120000 43.560000 40 41 40 0
