ply
format ascii 1.0
element vertex 1094
property float x
property float y
property float z
property uchar red
property uchar green
property uchar blue
property uchar alpha
end_header
33.440000 29.920000 43.560000 104 105 104 0
33.660000 29.920000 43.120000 105 106 105 0
33.880000 29.920000 43.560000 105 106 105 0
34.100000 29.920000 43.560000 105 106 105 0
34.320000 29.920000 43.560000 104 105 104 0
34.540000 29.920000 43.560000 104 105 104 0
34.760000 29.920000 43.560000 104 105 104 0
34.980000 29.920000 43.560000 105 106 105 0
0.000000 30.140000 43.560000 124 125 124 0
0.220000 30.140000 43.560000 124 125 124 0
0.440000 30.140000 43.560000 123 124 123 0
0.660000 30.140000 43.560000 123 124 123 0
0.880000 30.140000 43.560000 124 125 124 0
1.100000 30.140000 43.560000 123 124 123 0
1.320000 30.140000 43.560000 122 123 122 0
1.540000 30.140000 43.560000 122 123 122 0
1.760000 30.140000 43.560000 122 123 122 0
1.980000 30.140000 43.560000 122 123 122 0
2.200000 30.140000 43.560000 122 123 122 0
2.420000 30.140000 43.560000 122 123 122 0
2.640000 30.140000 43.560000 122 123 122 0
2.860000 30.140000 43.560000 123 124 123 0
3.080000 30.140000 43.560000 122 123 122 0
3.300000 30.140000 43.560000 122 123 122 0
3.520000 30.140000 43.560000 122 123 122 0
3.740000 30.140000 43.560000 123 124 123 0
3.960000 30.140000 43.560000 122 123 122 0
4.180000 30.140000 43.560000 122 123 122 0
4.400000 30.140000 43.560000 123 124 123 0
4.620000 30.140000 43.560000 128 129 128 0
4.840000 30.140000 11.440000 140 141 140 0
5.060000 30.140000 25.740000 157 158 157 0
5.280000 30.140000 38.060000 176 177 176 0
5.500000 30.140000 38.060000 189 190 189 0
5.720000 30.140000 38.060000 195 196 195 0
5.940000 30.140000 37.840000 196 197 196 0
6.160000 30.140000 37.840000 198 199 198 0
6.380000 30.140000 37.620000 198 199 198 0
6.600000 30.140000 37.620000 199 200 199 0
6.820000 30.140000 37.400000 200 201 200 0
7.040000 30.140000 37.400000 200 201 200 0
7.260000 30.140000 37.400000 202 203 202 0
7.480000 30.140000 37.180000 203 204 203 0
7.700000 30.140000 37.180000 204 205 204 0
7.920000 30.140000 37.180000 205 206 205 0
8.140000 30.140000 36.960000 204 205 204 0
8.360000 30.140000 36.960000 205 206 205 0
8.580000 30.140000 36.960000 206 207 206 0
8.800000 30.140000 36.740000 204 205 204 0
9.020000 30.140000 36.740000 204 205 204 0
9.240000 30.140000 36.740000 206 207 206 0
9.460000 30.140000 36.520000 204 205 204 0
9.680000 30.140000 36.520000 202 203 202 0
9.900000 30.140000 36.520000 201 202 201 0
10.120000 30.140000 36.300000 200 201 200 0
10.340000 30.140000 36.300000 200 201 200 0
10.560000 30.140000 36.080000 198 199 198 0
10.780000 30.140000 43.560000 198 199 198 0
11.000000 30.140000 43.560000 196 197 196 0
11.220000 30.140000 43.560000 196 197 196 0
11.440000 30.140000 43.560000 194 195 194 0
11.660000 30.140000 43.560000 194 195 194 0
11.880000 30.140000 43.560000 190 191 190 0
12.100000 30.140000 43.560000 191 192 191 0
12.320000 30.140000 43.560000 189 190 189 0
12.540000 30.140000 43.560000 185 186 185 0
12.760000 30.140000 43.560000 183 184 183 0
12.980000 30.140000 43.560000 179 180 179 0
13.200000 30.140000 43.560000 178 179 178 0
13.420000 30.140000 43.560000 176 177 176 0
13.640000 30.140000 43.560000 170 171 170 0
13.860000 30.140000 43.560000 169 170 169 0
14.080000 30.140000 43.560000 166 167 166 0
14.300000 30.140000 43.560000 160 161 160 0
14.520000 30.140000 43.560000 158 159 158 0
14.740000 30.140000 43.560000 154 155 154 0
14.960000 30.140000 43.560000 152 153 152 0
15.180000 30.140000 43.560000 150 151 150 0
15.400000 30.140000 43.560000 147 148 147 0
15.620000 30.140000 43.560000 145 146 145 0
15.840000 30.140000 43.560000 143 144 143 0
16.060000 30.140000 43.560000 140 141 140 0
16.280000 30.140000 43.560000 138 139 138 0
16.500000 30.140000 43.560000 135 136 135 0
16.720000 30.140000 43.560000 135 136 135 0
16.940000 30.140000 43.560000 134 135 134 0
17.160000 30.140000 43.560000 132 133 132 0
17.380000 30.140000 43.560000 131 132 131 0
17.600000 30.140000 43.560000 130 131 130 0
17.820000 30.140000 43.560000 129 130 129 0
18.040000 30.140000 43.560000 128 129 128 0
18.260000 30.140000 43.560000 127 128 127 0
18.480000 30.140000 43.560000 127 128 127 0
18.700000 30.140000 43.560000 127 128 127 0
18.920000 30.140000 43.560000 126 127 126 0
19.140000 30.140000 43.560000 126 127 126 0
19.360000 30.140000 43.560000 127 128 127 0
19.580000 30.140000 43.560000 128 129 128 0
19.800000 30.140000 43.560000 128 129 128 0
20.020000 30.140000 43.560000 128 129 128 0
20.240000 30.140000 43.560000 128 129 128 0
20.460000 30.140000 43.560000 128 129 128 0
20.680000 30.140000 43.560000 129 130 129 0
20.900000 30.140000 43.560000 131 132 131 0
21.120000 30.140000 43.560000 133 134 133 0
21.340000 30.140000 43.560000 133 134 133 0
21.560000 30.140000 43.560000 135 136 135 0
21.780000 30.140000 43.560000 134 135 134 0
22.000000 30.140000 43.560000 137 138 137 0
22.220000 30.140000 43.560000 139 140 139 0
22.440000 30.140000 43.560000 141 142 141 0
22.660000 30.140000 43.560000 142 143 142 0
22.880000 30.140000 43.560000 145 146 145 0
23.100000 30.140000 43.560000 147 148 147 0
23.320000 30.140000 43.560000 149 150 149 0
23.540000 30.140000 43.560000 151 152 151 0
23.760000 30.140000 43.560000 152 153 152 0
23.980000 30.140000 43.560000 155 156 155 0
24.200000 30.140000 43.560000 157 158 157 0
24.420000 30.140000 41.360000 160 161 160 0
24.640000 30.140000 41.140000 161 162 161 0
24.860000 30.140000 40.920000 163 164 163 0
25.080000 30.140000 40.920000 167 168 167 0
25.300000 30.140000 40.700000 169 170 169 0
25.520000 30.140000 40.700000 171 172 171 0
25.740000 30.140000 40.480000 173 174 173 0
25.960000 30.140000 40.480000 173 174 173 0
26.180000 30.140000 40.260000 175 176 175 0
26.400000 30.140000 40.260000 177 178 177 0
26.620000 30.140000 40.040000 178 179 178 0
26.840000 30.140000 40.040000 180 181 180 0
27.060000 30.140000 40.040000 181 182 181 0
27.280000 30.140000 39.820000 183 184 183 0
27.500000 30.140000 39.820000 185 186 185 0
27.720000 30.140000 39.820000 187 188 187 0
27.940000 30.140000 39.600000 188 189 188 0
28.160000 30.140000 39.600000 189 190 189 0
28.380000 30.140000 39.600000 189 190 189 0
28.600000 30.140000 39.600000 192 193 192 0
28.820000 30.140000 39.380000 193 194 193 0
29.040000 30.140000 39.380000 193 194 193 0
29.260000 30.140000 39.380000 194 195 194 0
29.480000 30.140000 39.160000 195 196 195 0
29.700000 30.140000 39.160000 196 197 196 0
29.920000 30.140000 39.160000 198 199 198 0
30.140000 30.140000 38.940000 198 199 198 0
30.360000 30.140000 38.940000 199 200 199 0
30.580000 30.140000 38.940000 195 196 195 0
30.800000 30.140000 38.940000 183 184 183 0
31.020000 30.140000 26.840000 164 165 164 0
31.240000 30.140000 26.400000 140 141 140 0
31.460000 30.140000 11.660000 117 118 117 0
31.680000 30.140000 43.560000 107 108 107 0
31.900000 30.140000 43.560000 106 107 106 0
32.120000 30.140000 43.560000 105 106 105 0
32.340000 30.140000 43.560000 105 106 105 0
32.560000 30.140000 43.560000 105 106 105 0
32.780000 30.140000 43.560000 104 105 104 0
33.000000 30.140000 43.560000 104 105 104 0
33.220000 30.140000 43.560000 104 105 104 0
33.440000 30.140000 43.560000 105 106 105 0
33.660000 30.140000 43.560000 104 105 104 0
33.880000 30.140000 43.560000 104 105 104 0
34.100000 30.140000 43.560000 105 106 105 0
34.320000 30.140000 43.560000 105 106 105 0
34.540000 30.140000 43.560000 105 106 105 0
34.760000 30.140000 43.560000 105 106 105 0
34.980000 30.140000 43.560000 105 106 105 0
0.000000 30.360000 43.560000 124 125 124 0
0.220000 30.360000 43.560000 123 124 123 0
0.440000 30.360000 43.560000 124 125 124 0
0.660000 30.360000 43.560000 124 125 124 0
0.880000 30.360000 43.560000 124 125 124 0
1.100000 30.360000 43.560000 123 124 123 0
1.320000 30.360000 43.560000 122 123 122 0
1.540000 30.360000 43.560000 123 124 123 0
1.760000 30.360000 43.560000 122 123 122 0
1.980000 30.360000 43.560000 122 123 122 0
2.200000 30.360000 43.560000 122 123 122 0
2.420000 30.360000 43.560000 122 123 122 0
2.640000 30.360000 43.560000 122 123 122 0
2.860000 30.360000 43.560000 122 123 122 0
3.080000 30.360000 43.560000 122 123 122 0
3.300000 30.360000 43.560000 123 124 123 0
3.520000 30.360000 43.560000 123 124 123 0
3.740000 30.360000 43.560000 122 123 122 0
3.960000 30.360000 43.560000 122 123 122 0
4.180000 30.360000 43.560000 123 124 123 0
4.400000 30.360000 43.560000 124 125 124 0
4.620000 30.360000 43.560000 129 130 129 0
4.840000 30.360000 9.900000 141 142 141 0
5.060000 30.360000 24.420000 158 159 158 0
5.280000 30.360000 36.740000 177 178 177 0
5.500000 30.360000 36.740000 188 189 188 0
5.720000 30.360000 36.740000 192 193 192 0
5.940000 30.360000 36.740000 193 194 193 0
6.160000 30.360000 36.520000 193 194 193 0
6.380000 30.360000 36.520000 193 194 193 0
6.600000 30.360000 36.520000 193 194 193 0
6.820000 30.360000 36.300000 194 195 194 0
7.040000 30.360000 36.300000 194 195 194 0
7.260000 30.360000 36.080000 193 194 193 0
7.480000 30.360000 36.080000 193 194 193 0
7.700000 30.360000 36.080000 192 193 192 0
7.920000 30.360000 36.080000 193 194 193 0
8.140000 30.360000 35.860000 192 193 192 0
8.360000 30.360000 35.860000 192 193 192 0
8.580000 30.360000 35.860000 192 193 192 0
8.800000 30.360000 35.640000 190 191 190 0
9.020000 30.360000 35.640000 187 188 187 0
9.240000 30.360000 35.640000 185 186 185 0
9.460000 30.360000 35.420000 186 187 186 0
9.680000 30.360000 35.420000 184 185 184 0
9.900000 30.360000 35.200000 182 183 182 0
10.120000 30.360000 35.200000 180 181 180 0
10.340000 30.360000 34.980000 179 180 179 0
10.560000 30.360000 43.560000 178 179 178 0
10.780000 30.360000 43.560000 176 177 176 0
11.000000 30.360000 43.560000 176 177 176 0
11.220000 30.360000 43.560000 173 174 173 0
11.440000 30.360000 43.560000 172 173 172 0
11.660000 30.360000 43.560000 168 169 168 0
11.880000 30.360000 43.560000 166 167 166 0
12.100000 30.360000 43.560000 166 167 166 0
12.320000 30.360000 43.560000 162 163 162 0
12.540000 30.360000 43.560000 162 163 162 0
12.760000 30.360000 43.560000 160 161 160 0
12.980000 30.360000 43.560000 156 157 156 0
13.200000 30.360000 43.560000 153 154 153 0
13.420000 30.360000 43.560000 150 151 150 0
13.640000 30.360000 43.560000 149 150 149 0
13.860000 30.360000 43.560000 148 149 148 0
14.080000 30.360000 43.560000 146 147 146 0
14.300000 30.360000 43.560000 144 145 144 0
14.520000 30.360000 43.560000 145 146 145 0
14.740000 30.360000 43.560000 144 145 144 0
14.960000 30.360000 43.560000 142 143 142 0
15.180000 30.360000 43.560000 139 140 139 0
15.400000 30.360000 43.560000 138 139 138 0
15.620000 30.360000 43.560000 136 137 136 0
15.840000 30.360000 43.560000 136 137 136 0
16.060000 30.360000 43.560000 135 136 135 0
16.280000 30.360000 43.560000 135 136 135 0
16.500000 30.360000 43.560000 134 135 134 0
16.720000 30.360000 43.560000 135 136 135 0
16.940000 30.360000 43.560000 134 135 134 0
17.160000 30.360000 43.560000 133 134 133 0
17.380000 30.360000 43.560000 133 134 133 0
17.600000 30.360000 43.560000 132 133 132 0
17.820000 30.360000 43.560000 131 132 131 0
18.040000 30.360000 43.560000 132 133 132 0
18.260000 30.360000 43.560000 132 133 132 0
18.480000 30.360000 43.560000 133 134 133 0
18.700000 30.360000 43.560000 133 134 133 0
18.920000 30.360000 43.560000 133 134 133 0
19.140000 30.360000 43.560000 134 135 134 0
19.360000 30.360000 43.560000 135 136 135 0
19.580000 30.360000 43.560000 138 139 138 0
19.800000 30.360000 43.560000 138 139 138 0
20.020000 30.360000 43.560000 139 140 139 0
20.240000 30.360000 43.560000 141 142 141 0
20.460000 30.360000 43.560000 143 144 143 0
20.680000 30.360000 43.560000 145 146 145 0
20.900000 30.360000 43.560000 148 149 148 0
21.120000 30.360000 43.560000 149 150 149 0
21.340000 30.360000 43.560000 151 152 151 0
21.560000 30.360000 43.560000 152 153 152 0
21.780000 30.360000 43.560000 154 155 154 0
22.000000 30.360000 43.560000 157 158 157 0
22.220000 30.360000 41.360000 160 161 160 0
22.440000 30.360000 40.920000 163 164 163 0
22.660000 30.360000 40.700000 164 165 164 0
22.880000 30.360000 40.480000 167 168 167 0
23.100000 30.360000 40.260000 169 170 169 0
23.320000 30.360000 40.260000 173 174 173 0
23.540000 30.360000 40.040000 175 176 175 0
23.760000 30.360000 40.040000 177 178 177 0
23.980000 30.360000 39.820000 179 180 179 0
24.200000 30.360000 39.820000 180 181 180 0
24.420000 30.360000 39.600000 182 183 182 0
24.640000 30.360000 39.600000 185 186 185 0
24.860000 30.360000 39.380000 187 188 187 0
25.080000 30.360000 39.380000 189 190 189 0
25.300000 30.360000 39.380000 191 192 191 0
25.520000 30.360000 39.160000 192 193 192 0
25.740000 30.360000 39.160000 193 194 193 0
25.960000 30.360000 39.160000 194 195 194 0
26.180000 30.360000 38.940000 195 196 195 0
26.400000 30.360000 38.940000 196 197 196 0
26.620000 30.360000 38.940000 197 198 197 0
26.840000 30.360000 38.940000 198 199 198 0
27.060000 30.360000 38.720000 199 200 199 0
27.280000 30.360000 38.720000 200 201 200 0
27.500000 30.360000 38.720000 203 204 203 0
27.720000 30.360000 38.500000 202 203 202 0
27.940000 30.360000 38.500000 203 204 203 0
28.160000 30.360000 38.500000 204 205 204 0
28.380000 30.360000 38.500000 204 205 204 0
28.600000 30.360000 38.280000 205 206 205 0
28.820000 30.360000 38.280000 206 207 206 0
29.040000 30.360000 38.280000 206 207 206 0
29.260000 30.360000 38.060000 206 207 206 0
29.480000 30.360000 38.060000 206 207 206 0
29.700000 30.360000 38.060000 207 208 207 0
29.920000 30.360000 38.060000 208 209 208 0
30.140000 30.360000 37.840000 208 209 208 0
30.360000 30.360000 37.840000 207 208 207 0
30.580000 30.360000 37.840000 203 204 203 0
30.800000 30.360000 37.620000 189 190 189 0
31.020000 30.360000 25.300000 169 170 169 0
31.240000 30.360000 25.080000 145 146 145 0
31.460000 30.360000 10.120000 121 122 121 0
31.680000 30.360000 43.560000 109 110 109 0
31.900000 30.360000 43.560000 106 107 106 0
32.120000 30.360000 41.800000 105 106 105 0
32.340000 30.360000 43.560000 105 106 105 0
32.560000 30.360000 43.560000 104 105 104 0
32.780000 30.360000 43.560000 104 105 104 0
33.000000 30.360000 43.560000 104 105 104 0
33.220000 30.360000 43.560000 104 105 104 0
33.440000 30.360000 43.560000 105 106 105 0
33.660000 30.360000 43.560000 104 105 104 0
33.880000 30.360000 43.560000 105 106 105 0
34.100000 30.360000 43.560000 105 106 105 0
34.320000 30.360000 43.560000 105 106 105 0
34.540000 30.360000 43.560000 105 106 105 0
34.760000 30.360000 43.560000 106 107 106 0
34.980000 30.360000 43.560000 105 106 105 0
0.000000 30.580000 43.560000 124 125 124 0
0.220000 30.580000 43.560000 125 126 125 0
0.440000 30.580000 43.560000 124 125 124 0
0.660000 30.580000 43.560000 124 125 124 0
0.880000 30.580000 43.560000 124 125 124 0
1.100000 30.580000 41.360000 124 125 124 0
1.320000 30.580000 43.560000 123 124 123 0
1.540000 30.580000 43.560000 123 124 123 0
1.760000 30.580000 43.560000 122 123 122 0
1.980000 30.580000 43.560000 122 123 122 0
2.200000 30.580000 43.560000 122 123 122 0
2.420000 30.580000 43.560000 122 123 122 0
2.640000 30.580000 43.560000 123 124 123 0
2.860000 30.580000 42.900000 123 124 123 0
3.080000 30.580000 43.560000 123 124 123 0
3.300000 30.580000 43.560000 122 123 122 0
3.520000 30.580000 43.560000 122 123 122 0
3.740000 30.580000 43.560000 123 124 123 0
3.960000 30.580000 43.560000 123 124 123 0
4.180000 30.580000 43.560000 123 124 123 0
4.400000 30.580000 43.560000 124 125 124 0
4.620000 30.580000 43.560000 129 130 129 0
4.840000 30.580000 8.580000 140 141 140 0
5.060000 30.580000 23.100000 156 157 156 0
5.280000 30.580000 35.640000 171 172 171 0
5.500000 30.580000 35.640000 183 184 183 0
5.720000 30.580000 35.640000 186 187 186 0
5.940000 30.580000 35.640000 186 187 186 0
6.160000 30.580000 35.420000 185 186 185 0
6.380000 30.580000 35.420000 185 186 185 0
6.600000 30.580000 35.420000 185 186 185 0
6.820000 30.580000 35.420000 184 185 184 0
7.040000 30.580000 35.200000 182 183 182 0
7.260000 30.580000 35.200000 180 181 180 0
7.480000 30.580000 35.200000 180 181 180 0
7.700000 30.580000 34.980000 178 179 178 0
7.920000 30.580000 34.760000 177 178 177 0
8.140000 30.580000 34.760000 176 177 176 0
8.360000 30.580000 34.760000 176 177 176 0
8.580000 30.580000 34.540000 173 174 173 0
8.800000 30.580000 34.540000 172 173 172 0
9.020000 30.580000 34.320000 171 172 171 0
9.240000 30.580000 34.320000 168 169 168 0
9.460000 30.580000 34.100000 165 166 165 0
9.680000 30.580000 34.100000 162 163 162 0
9.900000 30.580000 33.880000 160 161 160 0
10.120000 30.580000 33.660000 159 160 159 0
10.340000 30.580000 33.660000 158 159 158 0
10.560000 30.580000 43.560000 156 157 156 0
10.780000 30.580000 43.560000 154 155 154 0
11.000000 30.580000 43.560000 153 154 153 0
11.220000 30.580000 43.560000 152 153 152 0
11.440000 30.580000 43.560000 152 153 152 0
11.660000 30.580000 43.560000 149 150 149 0
11.880000 30.580000 43.560000 147 148 147 0
12.100000 30.580000 43.560000 146 147 146 0
12.320000 30.580000 43.560000 146 147 146 0
12.540000 30.580000 43.560000 144 145 144 0
12.760000 30.580000 43.560000 144 145 144 0
12.980000 30.580000 43.560000 141 142 141 0
13.200000 30.580000 43.560000 141 142 141 0
13.420000 30.580000 43.560000 140 141 140 0
13.640000 30.580000 43.560000 141 142 141 0
13.860000 30.580000 43.560000 140 141 140 0
14.080000 30.580000 43.560000 139 140 139 0
14.300000 30.580000 43.560000 139 140 139 0
14.520000 30.580000 43.560000 140 141 140 0
14.740000 30.580000 43.560000 141 142 141 0
14.960000 30.580000 43.560000 140 141 140 0
15.180000 30.580000 43.560000 139 140 139 0
15.400000 30.580000 43.560000 139 140 139 0
15.620000 30.580000 43.560000 139 140 139 0
15.840000 30.580000 43.560000 139 140 139 0
16.060000 30.580000 43.560000 139 140 139 0
16.280000 30.580000 43.560000 139 140 139 0
16.500000 30.580000 43.560000 140 141 140 0
16.720000 30.580000 43.560000 141 142 141 0
16.940000 30.580000 43.560000 141 142 141 0
17.160000 30.580000 43.560000 142 143 142 0
17.380000 30.580000 43.560000 143 144 143 0
17.600000 30.580000 43.560000 144 145 144 0
17.820000 30.580000 43.560000 142 143 142 0
18.040000 30.580000 43.560000 144 145 144 0
18.260000 30.580000 43.560000 145 146 145 0
18.480000 30.580000 43.560000 147 148 147 0
18.700000 30.580000 43.560000 149 150 149 0
18.920000 30.580000 43.560000 151 152 151 0
19.140000 30.580000 43.560000 153 154 153 0
19.360000 30.580000 43.560000 155 156 155 0
19.580000 30.580000 43.560000 158 159 158 0
19.800000 30.580000 43.560000 160 161 160 0
20.020000 30.580000 43.560000 161 162 161 0
20.240000 30.580000 43.560000 162 163 162 0
20.460000 30.580000 40.480000 166 167 166 0
20.680000 30.580000 40.040000 169 170 169 0
20.900000 30.580000 40.040000 172 173 172 0
21.120000 30.580000 39.820000 173 174 173 0
21.340000 30.580000 39.820000 174 175 174 0
21.560000 30.580000 39.600000 177 178 177 0
21.780000 30.580000 39.380000 180 181 180 0
22.000000 30.580000 39.380000 182 183 182 0
22.220000 30.580000 39.160000 185 186 185 0
22.440000 30.580000 39.160000 186 187 186 0
22.660000 30.580000 38.940000 189 190 189 0
22.880000 30.580000 38.940000 192 193 192 0
23.100000 30.580000 38.940000 194 195 194 0
23.320000 30.580000 38.720000 194 195 194 0
23.540000 30.580000 38.720000 197 198 197 0
23.760000 30.580000 38.720000 199 200 199 0
23.980000 30.580000 38.500000 200 201 200 0
24.200000 30.580000 38.500000 202 203 202 0
24.420000 30.580000 38.500000 203 204 203 0
24.640000 30.580000 38.280000 204 205 204 0
24.860000 30.580000 38.280000 206 207 206 0
25.080000 30.580000 38.280000 206 207 206 0
25.300000 30.580000 38.280000 209 210 209 0
25.520000 30.580000 38.060000 210 211 210 0
25.740000 30.580000 38.060000 211 212 211 0
25.960000 30.580000 38.060000 211 212 211 0
26.180000 30.580000 37.840000 211 212 211 0
26.400000 30.580000 37.840000 212 213 212 0
26.620000 30.580000 37.840000 212 213 212 0
26.840000 30.580000 37.620000 212 213 212 0
27.060000 30.580000 37.620000 212 213 212 0
27.280000 30.580000 37.620000 213 214 213 0
27.500000 30.580000 37.400000 213 214 213 0
27.720000 30.580000 37.400000 213 214 213 0
27.940000 30.580000 37.400000 212 213 212 0
28.160000 30.580000 37.400000 213 214 213 0
28.380000 30.580000 37.180000 212 213 212 0
28.600000 30.580000 37.180000 211 212 211 0
28.820000 30.580000 36.960000 212 213 212 0
29.040000 30.580000 36.960000 212 213 212 0
29.260000 30.580000 36.960000 211 212 211 0
29.480000 30.580000 36.740000 211 212 211 0
29.700000 30.580000 36.740000 210 211 210 0
29.920000 30.580000 36.740000 210 211 210 0
30.140000 30.580000 36.520000 210 211 210 0
30.360000 30.580000 36.520000 209 210 209 0
30.580000 30.580000 36.520000 204 205 204 0
30.800000 30.580000 36.300000 191 192 191 0
31.020000 30.580000 23.760000 170 171 170 0
31.240000 30.580000 23.760000 146 147 146 0
31.460000 30.580000 8.800000 121 122 121 0
31.680000 30.580000 43.560000 109 110 109 0
31.900000 30.580000 43.560000 106 107 106 0
32.120000 30.580000 43.560000 105 106 105 0
32.340000 30.580000 43.560000 105 106 105 0
32.560000 30.580000 43.560000 105 106 105 0
32.780000 30.580000 43.560000 105 106 105 0
33.000000 30.580000 43.560000 104 105 104 0
33.220000 30.580000 43.560000 104 105 104 0
33.440000 30.580000 43.560000 105 106 105 0
33.660000 30.580000 41.360000 104 105 104 0
33.880000 30.580000 43.560000 104 105 104 0
34.100000 30.580000 43.560000 105 106 105 0
34.320000 30.580000 43.560000 105 106 105 0
34.540000 30.580000 43.560000 105 106 105 0
34.760000 30.580000 43.560000 106 107 106 0
34.980000 30.580000 43.560000 105 106 105 0
0.000000 30.800000 43.560000 125 126 125 0
0.220000 30.800000 43.560000 125 126 125 0
0.440000 30.800000 43.560000 124 125 124 0
0.660000 30.800000 43.560000 124 125 124 0
0.880000 30.800000 43.560000 123 124 123 0
1.100000 30.800000 43.560000 123 124 123 0
1.320000 30.800000 42.460000 123 124 123 0
1.540000 30.800000 43.560000 122 123 122 0
1.760000 30.800000 43.560000 122 123 122 0
1.980000 30.800000 43.560000 122 123 122 0
2.200000 30.800000 43.560000 122 123 122 0
2.420000 30.800000 43.560000 122 123 122 0
2.640000 30.800000 43.560000 122 123 122 0
2.860000 30.800000 43.560000 123 124 123 0
3.080000 30.800000 43.560000 123 124 123 0
3.300000 30.800000 43.560000 122 123 122 0
3.520000 30.800000 43.560000 122 123 122 0
3.740000 30.800000 43.560000 123 124 123 0
3.960000 30.800000 43.560000 123 124 123 0
4.180000 30.800000 43.560000 123 124 123 0
4.400000 30.800000 43.560000 123 124 123 0
4.620000 30.800000 43.560000 128 129 128 0
4.840000 30.800000 7.040000 136 137 136 0
5.060000 30.800000 21.780000 149 150 149 0
5.280000 30.800000 34.540000 163 164 163 0
5.500000 30.800000 34.540000 171 172 171 0
5.720000 30.800000 34.540000 172 173 172 0
5.940000 30.800000 34.540000 173 174 173 0
6.160000 30.800000 34.320000 172 173 172 0
6.380000 30.800000 34.320000 169 170 169 0
6.600000 30.800000 34.100000 168 169 168 0
6.820000 30.800000 34.100000 166 167 166 0
7.040000 30.800000 34.100000 164 165 164 0
7.260000 30.800000 33.880000 163 164 163 0
7.480000 30.800000 33.880000 163 164 163 0
7.700000 30.800000 33.660000 160 161 160 0
7.920000 30.800000 33.660000 159 160 159 0
8.140000 30.800000 33.440000 158 159 158 0
8.360000 30.800000 33.440000 156 157 156 0
8.580000 30.800000 33.220000 155 156 155 0
8.800000 30.800000 33.000000 151 152 151 0
9.020000 30.800000 33.000000 150 151 150 0
9.240000 30.800000 32.780000 149 150 149 0
9.460000 30.800000 32.780000 146 147 146 0
9.680000 30.800000 32.560000 146 147 146 0
9.900000 30.800000 32.560000 145 146 145 0
10.120000 30.800000 32.340000 144 145 144 0
10.340000 30.800000 43.560000 142 143 142 0
10.560000 30.800000 43.560000 141 142 141 0
10.780000 30.800000 43.560000 141 142 141 0
11.000000 30.800000 43.560000 141 142 141 0
11.220000 30.800000 43.560000 141 142 141 0
11.440000 30.800000 43.560000 140 141 140 0
11.660000 30.800000 43.560000 139 140 139 0
11.880000 30.800000 43.560000 138 139 138 0
12.100000 30.800000 43.560000 139 140 139 0
12.320000 30.800000 43.560000 138 139 138 0
12.540000 30.800000 43.560000 137 138 137 0
12.760000 30.800000 43.560000 137 138 137 0
12.980000 30.800000 43.560000 138 139 138 0
13.200000 30.800000 43.560000 138 139 138 0
13.420000 30.800000 43.560000 138 139 138 0
13.640000 30.800000 43.560000 141 142 141 0
13.860000 30.800000 43.560000 140 141 140 0
14.080000 30.800000 43.560000 141 142 141 0
14.300000 30.800000 43.560000 144 145 144 0
14.520000 30.800000 43.560000 147 148 147 0
14.740000 30.800000 43.560000 146 147 146 0
14.960000 30.800000 43.560000 147 148 147 0
15.180000 30.800000 43.560000 148 149 148 0
15.400000 30.800000 43.560000 150 151 150 0
15.620000 30.800000 43.560000 151 152 151 0
15.840000 30.800000 43.560000 150 151 150 0
16.060000 30.800000 43.560000 150 151 150 0
16.280000 30.800000 43.560000 152 153 152 0
16.500000 30.800000 43.560000 154 155 154 0
16.720000 30.800000 43.560000 157 158 157 0
16.940000 30.800000 43.560000 158 159 158 0
17.160000 30.800000 43.560000 160 161 160 0
17.380000 30.800000 43.560000 163 164 163 0
17.600000 30.800000 43.560000 164 165 164 0
17.820000 30.800000 43.560000 165 166 165 0
18.040000 30.800000 43.560000 166 167 166 0
18.260000 30.800000 43.560000 169 170 169 0
18.480000 30.800000 43.560000 170 171 170 0
18.700000 30.800000 40.040000 173 174 173 0
18.920000 30.800000 39.600000 176 177 176 0
19.140000 30.800000 39.380000 178 179 178 0
19.360000 30.800000 39.380000 181 182 181 0
19.580000 30.800000 39.160000 184 185 184 0
19.800000 30.800000 38.940000 185 186 185 0
20.020000 30.800000 38.940000 185 186 185 0
20.240000 30.800000 38.720000 189 190 189 0
20.460000 30.800000 38.720000 191 192 191 0
20.680000 30.800000 38.500000 193 194 193 0
20.900000 30.800000 38.500000 196 197 196 0
21.120000 30.800000 38.500000 198 199 198 0
21.340000 30.800000 38.280000 198 199 198 0
21.560000 30.800000 38.280000 200 201 200 0
21.780000 30.800000 38.060000 202 203 202 0
22.000000 30.800000 38.060000 205 206 205 0
22.220000 30.800000 37.840000 207 208 207 0
22.440000 30.800000 37.840000 209 210 209 0
22.660000 30.800000 37.840000 210 211 210 0
22.880000 30.800000 37.840000 211 212 211 0
23.100000 30.800000 37.620000 213 214 213 0
23.320000 30.800000 37.620000 214 215 214 0
23.540000 30.800000 37.620000 215 216 215 0
23.760000 30.800000 37.400000 215 216 215 0
23.980000 30.800000 37.400000 216 217 216 0
24.200000 30.800000 37.400000 217 218 217 0
24.420000 30.800000 37.180000 218 219 218 0
24.640000 30.800000 37.180000 219 220 219 0
24.860000 30.800000 37.180000 219 220 219 0
25.080000 30.800000 36.960000 219 220 219 0
25.300000 30.800000 36.960000 219 220 219 0
25.520000 30.800000 36.960000 219 220 219 0
25.740000 30.800000 36.740000 219 220 219 0
25.960000 30.800000 36.740000 219 220 219 0
26.180000 30.800000 36.520000 219 220 219 0
26.400000 30.800000 36.520000 219 220 219 0
26.620000 30.800000 36.520000 218 219 218 0
26.840000 30.800000 36.300000 218 219 218 0
27.060000 30.800000 36.300000 217 218 217 0
27.280000 30.800000 36.300000 216 217 216 0
27.500000 30.800000 36.080000 215 216 215 0
27.720000 30.800000 36.080000 215 216 215 0
27.940000 30.800000 36.080000 214 215 214 0
28.160000 30.800000 35.860000 213 214 213 0
28.380000 30.800000 35.860000 213 214 213 0
28.600000 30.800000 35.860000 211 212 211 0
28.820000 30.800000 35.640000 210 211 210 0
29.040000 30.800000 35.640000 208 209 208 0
29.260000 30.800000 35.640000 208 209 208 0
29.480000 30.800000 35.420000 207 208 207 0
29.700000 30.800000 35.420000 205 206 205 0
29.920000 30.800000 35.420000 204 205 204 0
30.140000 30.800000 35.420000 203 204 203 0
30.360000 30.800000 35.420000 201 202 201 0
30.580000 30.800000 35.200000 196 197 196 0
30.800000 30.800000 35.200000 185 186 185 0
31.020000 30.800000 22.440000 165 166 165 0
31.240000 30.800000 22.440000 142 143 142 0
31.460000 30.800000 7.480000 120 121 120 0
31.680000 30.800000 43.560000 109 110 109 0
31.900000 30.800000 43.560000 105 106 105 0
32.120000 30.800000 43.560000 105 106 105 0
32.340000 30.800000 43.560000 105 106 105 0
32.560000 30.800000 43.560000 105 106 105 0
32.780000 30.800000 43.560000 105 106 105 0
33.000000 30.800000 43.560000 104 105 104 0
33.220000 30.800000 43.560000 104 105 104 0
33.440000 30.800000 43.560000 104 105 104 0
33.660000 30.800000 43.560000 104 105 104 0
33.880000 30.800000 43.560000 105 106 105 0
34.100000 30.800000 43.560000 105 106 105 0
34.320000 30.800000 43.560000 105 106 105 0
34.540000 30.800000 43.560000 105 106 105 0
34.760000 30.800000 43.560000 105 106 105 0
34.980000 30.800000 43.560000 105 106 105 0
0.000000 31.020000 43.560000 126 127 126 0
0.220000 31.020000 43.560000 125 126 125 0
0.440000 31.020000 40.260000 124 125 124 0
0.660000 31.020000 43.560000 124 125 124 0
0.880000 31.020000 43.560000 123 124 123 0
1.100000 31.020000 43.560000 123 124 123 0
1.320000 31.020000 43.560000 123 124 123 0
1.540000 31.020000 43.560000 123 124 123 0
1.760000 31.020000 40.480000 123 124 123 0
1.980000 31.020000 43.560000 122 123 122 0
2.200000 31.020000 43.560000 122 123 122 0
2.420000 31.020000 43.560000 123 124 123 0
2.640000 31.020000 43.560000 123 124 123 0
2.860000 31.020000 41.800000 123 124 123 0
3.080000 31.020000 43.560000 123 124 123 0
3.300000 31.020000 43.560000 123 124 123 0
3.520000 31.020000 43.560000 123 124 123 0
3.740000 31.020000 43.560000 122 123 122 0
3.960000 31.020000 43.560000 122 123 122 0
4.180000 31.020000 43.560000 123 124 123 0
4.400000 31.020000 42.460000 124 125 124 0
4.620000 31.020000 43.560000 126 127 126 0
4.840000 31.020000 5.720000 133 134 133 0
5.060000 31.020000 20.460000 141 142 141 0
5.280000 31.020000 33.440000 151 152 151 0
5.500000 31.020000 33.440000 156 157 156 0
5.720000 31.020000 33.220000 157 158 157 0
5.940000 31.020000 33.220000 157 158 157 0
6.160000 31.020000 33.000000 155 156 155 0
6.380000 31.020000 33.000000 155 156 155 0
6.600000 31.020000 32.780000 152 153 152 0
6.820000 31.020000 32.780000 150 151 150 0
7.040000 31.020000 32.560000 148 149 148 0
7.260000 31.020000 32.560000 147 148 147 0
7.480000 31.020000 32.340000 145 146 145 0
7.700000 31.020000 32.340000 143 144 143 0
7.920000 31.020000 32.120000 143 144 143 0
8.140000 31.020000 32.120000 142 143 142 0
8.360000 31.020000 32.120000 142 143 142 0
8.580000 31.020000 31.900000 140 141 140 0
8.800000 31.020000 31.900000 138 139 138 0
9.020000 31.020000 31.680000 138 139 138 0
9.240000 31.020000 31.680000 137 138 137 0
9.460000 31.020000 31.460000 136 137 136 0
9.680000 31.020000 31.460000 136 137 136 0
9.900000 31.020000 43.560000 135 136 135 0
10.120000 31.020000 43.560000 136 137 136 0
10.340000 31.020000 43.560000 135 136 135 0
10.560000 31.020000 43.560000 135 136 135 0
10.780000 31.020000 43.560000 135 136 135 0
11.000000 31.020000 43.560000 136 137 136 0
11.220000 31.020000 43.560000 135 136 135 0
11.440000 31.020000 43.560000 136 137 136 0
11.660000 31.020000 43.560000 136 137 136 0
11.880000 31.020000 43.560000 137 138 137 0
12.100000 31.020000 43.560000 138 139 138 0
12.320000 31.020000 43.560000 139 140 139 0
12.540000 31.020000 43.560000 140 141 140 0
12.760000 31.020000 43.560000 141 142 141 0
12.980000 31.020000 43.560000 142 143 142 0
13.200000 31.020000 43.560000 143 144 143 0
13.420000 31.020000 43.560000 147 148 147 0
13.640000 31.020000 43.560000 153 154 153 0
13.860000 31.020000 43.560000 157 158 157 0
14.080000 31.020000 43.560000 159 160 159 0
14.300000 31.020000 43.560000 161 162 161 0
14.520000 31.020000 43.560000 169 170 169 0
14.740000 31.020000 43.560000 165 166 165 0
14.960000 31.020000 43.560000 165 166 165 0
15.180000 31.020000 43.560000 168 169 168 0
15.400000 31.020000 43.560000 171 172 171 0
15.620000 31.020000 43.560000 173 174 173 0
15.840000 31.020000 43.560000 173 174 173 0
16.060000 31.020000 43.560000 175 176 175 0
16.280000 31.020000 43.560000 177 178 177 0
16.500000 31.020000 43.560000 180 181 180 0
16.720000 31.020000 43.560000 181 182 181 0
16.940000 31.020000 43.560000 183 184 183 0
17.160000 31.020000 39.380000 187 188 187 0
17.380000 31.020000 38.940000 190 191 190 0
17.600000 31.020000 38.720000 192 193 192 0
17.820000 31.020000 38.720000 192 193 192 0
18.040000 31.020000 38.500000 194 195 194 0
18.260000 31.020000 38.500000 195 196 195 0
18.480000 31.020000 38.280000 197 198 197 0
18.700000 31.020000 38.060000 199 200 199 0
18.920000 31.020000 38.060000 201 202 201 0
19.140000 31.020000 37.840000 202 203 202 0
19.360000 31.020000 37.840000 205 206 205 0
19.580000 31.020000 37.620000 208 209 208 0
19.800000 31.020000 37.620000 210 211 210 0
20.020000 31.020000 37.620000 210 211 210 0
20.240000 31.020000 37.400000 213 214 213 0
20.460000 31.020000 37.400000 215 216 215 0
20.680000 31.020000 37.400000 215 216 215 0
20.900000 31.020000 37.180000 217 218 217 0
21.120000 31.020000 37.180000 217 218 217 0
21.340000 31.020000 37.180000 217 218 217 0
21.560000 31.020000 36.960000 218 219 218 0
21.780000 31.020000 36.960000 220 221 220 0
22.000000 31.020000 36.740000 221 222 221 0
22.220000 31.020000 36.740000 221 222 221 0
22.440000 31.020000 36.740000 223 224 223 0
22.660000 31.020000 36.740000 224 225 224 0
22.880000 31.020000 36.520000 224 225 224 0
23.100000 31.020000 36.520000 223 224 223 0
23.320000 31.020000 36.300000 224 225 224 0
23.540000 31.020000 36.300000 224 225 224 0
23.760000 31.020000 36.300000 223 224 223 0
23.980000 31.020000 36.080000 224 225 224 0
24.200000 31.020000 36.080000 224 225 224 0
24.420000 31.020000 35.860000 223 224 223 0
24.640000 31.020000 35.860000 222 223 222 0
24.860000 31.020000 35.860000 222 223 222 0
25.080000 31.020000 35.640000 223 224 223 0
25.300000 31.020000 35.640000 222 223 222 0
25.520000 31.020000 35.420000 221 222 221 0
25.740000 31.020000 35.420000 220 221 220 0
25.960000 31.020000 35.420000 219 220 219 0
26.180000 31.020000 35.200000 219 220 219 0
26.400000 31.020000 35.200000 217 218 217 0
26.620000 31.020000 35.200000 217 218 217 0
26.840000 31.020000 34.980000 215 216 215 0
27.060000 31.020000 34.980000 213 214 213 0
27.280000 31.020000 34.980000 212 213 212 0
27.500000 31.020000 34.760000 211 212 211 0
27.720000 31.020000 34.760000 209 210 209 0
27.940000 31.020000 34.760000 208 209 208 0
28.160000 31.020000 34.760000 206 207 206 0
28.380000 31.020000 34.760000 204 205 204 0
28.600000 31.020000 34.540000 203 204 203 0
28.820000 31.020000 34.540000 201 202 201 0
29.040000 31.020000 34.540000 198 199 198 0
29.260000 31.020000 34.540000 196 197 196 0
29.480000 31.020000 34.320000 195 196 195 0
29.700000 31.020000 34.320000 193 194 193 0
29.920000 31.020000 34.320000 191 192 191 0
30.140000 31.020000 34.320000 190 191 190 0
30.360000 31.020000 34.100000 187 188 187 0
30.580000 31.020000 34.100000 183 184 183 0
30.800000 31.020000 34.100000 173 174 173 0
31.020000 31.020000 21.120000 156 157 156 0
31.240000 31.020000 21.120000 136 137 136 0
31.460000 31.020000 6.160000 118 119 118 0
31.680000 31.020000 43.560000 108 109 108 0
31.900000 31.020000 43.560000 106 107 106 0
32.120000 31.020000 43.560000 105 106 105 0
32.340000 31.020000 43.560000 105 106 105 0
32.560000 31.020000 43.560000 104 105 104 0
32.780000 31.020000 43.560000 105 106 105 0
33.000000 31.020000 43.560000 105 106 105 0
33.220000 31.020000 43.560000 105 106 105 0
33.440000 31.020000 43.560000 104 105 104 0
33.660000 31.020000 43.560000 104 105 104 0
33.880000 31.020000 43.560000 105 106 105 0
34.100000 31.020000 43.560000 105 106 105 0
34.320000 31.020000 43.560000 105 106 105 0
34.540000 31.020000 43.560000 105 106 105 0
34.760000 31.020000 43.560000 106 107 106 0
34.980000 31.020000 43.560000 106 107 106 0
0.000000 31.240000 43.560000 125 126 125 0
0.220000 31.240000 43.560000 125 126 125 0
0.440000 31.240000 43.560000 125 126 125 0
0.660000 31.240000 43.560000 124 125 124 0
0.880000 31.240000 43.560000 125 126 125 0
1.100000 31.240000 43.560000 123 124 123 0
1.320000 31.240000 43.560000 124 125 124 0
1.540000 31.240000 43.560000 123 124 123 0
1.760000 31.240000 43.120000 123 124 123 0
1.980000 31.240000 43.560000 123 124 123 0
2.200000 31.240000 43.560000 122 123 122 0
2.420000 31.240000 43.560000 123 124 123 0
2.640000 31.240000 43.560000 123 124 123 0
2.860000 31.240000 43.560000 123 124 123 0
3.080000 31.240000 43.560000 123 124 123 0
3.300000 31.240000 43.560000 122 123 122 0
3.520000 31.240000 43.560000 122 123 122 0
3.740000 31.240000 43.560000 123 124 123 0
3.960000 31.240000 43.560000 123 124 123 0
4.180000 31.240000 43.560000 122 123 122 0
4.400000 31.240000 43.560000 123 124 123 0
4.620000 31.240000 43.560000 126 127 126 0
4.840000 31.240000 3.960000 130 131 130 0
5.060000 31.240000 19.140000 135 136 135 0
5.280000 31.240000 32.120000 140 141 140 0
5.500000 31.240000 31.900000 143 144 143 0
5.720000 31.240000 31.900000 143 144 143 0
5.940000 31.240000 31.900000 142 143 142 0
6.160000 31.240000 31.680000 141 142 141 0
6.380000 31.240000 31.680000 141 142 141 0
6.600000 31.240000 31.460000 140 141 140 0
6.820000 31.240000 31.460000 138 139 138 0
7.040000 31.240000 31.240000 136 137 136 0
7.260000 31.240000 31.240000 136 137 136 0
7.480000 31.240000 31.020000 135 136 135 0
7.700000 31.240000 31.020000 134 135 134 0
7.920000 31.240000 31.020000 134 135 134 0
8.140000 31.240000 30.800000 134 135 134 0
8.360000 31.240000 30.800000 134 135 134 0
8.580000 31.240000 30.580000 133 134 133 0
8.800000 31.240000 30.580000 133 134 133 0
9.020000 31.240000 30.360000 134 135 134 0
9.240000 31.240000 30.360000 133 134 133 0
9.460000 31.240000 30.140000 132 133 132 0
9.680000 31.240000 30.140000 133 134 133 0
9.900000 31.240000 43.560000 133 134 133 0
10.120000 31.240000 43.560000 133 134 133 0
10.340000 31.240000 43.560000 134 135 134 0
10.560000 31.240000 43.560000 135 136 135 0
10.780000 31.240000 43.560000 136 137 136 0
11.000000 31.240000 43.560000 135 136 135 0
11.220000 31.240000 43.560000 137 138 137 0
11.440000 31.240000 43.560000 139 140 139 0
11.660000 31.240000 43.560000 141 142 141 0
11.880000 31.240000 43.560000 143 144 143 0
12.100000 31.240000 43.560000 144 145 144 0
12.320000 31.240000 43.560000 147 148 147 0
12.540000 31.240000 43.560000 150 151 150 0
12.760000 31.240000 43.560000 151 152 151 0
12.980000 31.240000 43.560000 154 155 154 0
13.200000 31.240000 43.560000 159 160 159 0
13.420000 31.240000 43.560000 168 169 168 0
13.640000 31.240000 43.560000 176 177 176 0
13.860000 31.240000 43.560000 180 181 180 0
14.080000 31.240000 43.560000 185 186 185 0
14.300000 31.240000 43.560000 190 191 190 0
14.520000 31.240000 43.560000 198 199 198 0
14.740000 31.240000 43.560000 196 197 196 0
14.960000 31.240000 43.560000 193 194 193 0
15.180000 31.240000 43.560000 196 197 196 0
15.400000 31.240000 38.940000 202 203 202 0
15.620000 31.240000 38.500000 203 204 203 0
15.840000 31.240000 38.280000 204 205 204 0
16.060000 31.240000 38.280000 206 207 206 0
16.280000 31.240000 38.060000 209 210 209 0
16.500000 31.240000 37.840000 212 213 212 0
16.720000 31.240000 37.840000 215 216 215 0
16.940000 31.240000 37.620000 212 213 212 0
17.160000 31.240000 37.620000 213 214 213 0
17.380000 31.240000 37.400000 218 219 218 0
17.600000 31.240000 37.400000 220 221 220 0
17.820000 31.240000 37.180000 219 220 219 0
18.040000 31.240000 37.180000 221 222 221 0
18.260000 31.240000 36.960000 222 223 222 0
18.480000 31.240000 36.960000 224 225 224 0
18.700000 31.240000 36.960000 224 225 224 0
18.920000 31.240000 36.740000 224 225 224 0
19.140000 31.240000 36.740000 223 224 223 0
19.360000 31.240000 36.740000 224 225 224 0
19.580000 31.240000 36.520000 227 228 227 0
19.800000 31.240000 36.520000 228 229 228 0
20.020000 31.240000 36.300000 229 230 229 0
20.240000 31.240000 36.300000 230 231 230 0
20.460000 31.240000 36.080000 230 231 230 0
20.680000 31.240000 36.080000 229 230 229 0
20.900000 31.240000 36.080000 228 229 228 0
21.120000 31.240000 35.860000 228 229 228 0
21.340000 31.240000 35.860000 228 229 228 0
21.560000 31.240000 35.860000 228 229 228 0
21.780000 31.240000 35.640000 229 230 229 0
22.000000 31.240000 35.640000 228 229 228 0
22.220000 31.240000 35.420000 228 229 228 0
22.440000 31.240000 35.420000 229 230 229 0
22.660000 31.240000 35.200000 229 230 229 0
22.880000 31.240000 35.200000 228 229 228 0
23.100000 31.240000 34.980000 226 227 226 0
23.320000 31.240000 34.980000 226 227 226 0
23.540000 31.240000 34.980000 226 227 226 0
23.760000 31.240000 34.760000 226 227 226 0
23.980000 31.240000 34.760000 224 225 224 0
24.200000 31.240000 34.760000 224 225 224 0
24.420000 31.240000 34.540000 222 223 222 0
24.640000 31.240000 34.540000 220 221 220 0
24.860000 31.240000 34.540000 219 220 219 0
25.080000 31.240000 34.320000 218 219 218 0
25.300000 31.240000 34.320000 217 218 217 0
25.520000 31.240000 34.320000 215 216 215 0
25.740000 31.240000 34.100000 213 214 213 0
25.960000 31.240000 34.100000 211 212 211 0
26.180000 31.240000 34.100000 209 210 209 0
26.400000 31.240000 34.100000 208 209 208 0
26.620000 31.240000 33.880000 206 207 206 0
26.840000 31.240000 33.880000 204 205 204 0
27.060000 31.240000 33.880000 202 203 202 0
27.280000 31.240000 33.660000 199 200 199 0
27.500000 31.240000 33.660000 197 198 197 0
27.720000 31.240000 33.660000 195 196 195 0
27.940000 31.240000 33.660000 193 194 193 0
28.160000 31.240000 33.660000 191 192 191 0
28.380000 31.240000 33.440000 189 190 189 0
28.600000 31.240000 33.440000 187 188 187 0
28.820000 31.240000 33.440000 185 186 185 0
29.040000 31.240000 33.220000 182 183 182 0
29.260000 31.240000 33.220000 179 180 179 0
29.480000 31.240000 33.220000 177 178 177 0
29.700000 31.240000 33.220000 177 178 177 0
29.920000 31.240000 33.000000 173 174 173 0
30.140000 31.240000 33.000000 171 172 171 0
30.360000 31.240000 33.000000 169 170 169 0
30.580000 31.240000 33.000000 165 166 165 0
30.800000 31.240000 32.780000 156 157 156 0
31.020000 31.240000 19.580000 143 144 143 0
31.240000 31.240000 19.580000 127 128 127 0
31.460000 31.240000 4.400000 115 116 115 0
31.680000 31.240000 43.560000 107 108 107 0
31.900000 31.240000 43.560000 106 107 106 0
32.120000 31.240000 43.560000 105 106 105 0
32.340000 31.240000 43.560000 106 107 106 0
32.560000 31.240000 43.560000 105 106 105 0
32.780000 31.240000 43.560000 105 106 105 0
33.000000 31.240000 43.560000 105 106 105 0
33.220000 31.240000 43.560000 106 107 106 0
33.440000 31.240000 40.040000 105 106 105 0
33.660000 31.240000 43.560000 104 105 104 0
33.880000 31.240000 43.560000 105 106 105 0
34.100000 31.240000 43.560000 104 105 104 0
34.320000 31.240000 43.560000 105 106 105 0
34.540000 31.240000 43.560000 105 106 105 0
34.760000 31.240000 43.560000 106 107 106 0
34.980000 31.240000 43.560000 106 107 106 0
0.000000 31.460000 43.560000 125 126 125 0
0.220000 31.460000 43.560000 125 126 125 0
0.440000 31.460000 43.560000 126 127 126 0
0.660000 31.460000 43.560000 125 126 125 0
0.880000 31.460000 43.560000 125 126 125 0
1.100000 31.460000 43.560000 124 125 124 0
1.320000 31.460000 40.260000 123 124 123 0
1.540000 31.460000 41.360000 123 124 123 0
1.760000 31.460000 43.560000 123 124 123 0
1.980000 31.460000 43.560000 124 125 124 0
2.200000 31.460000 43.560000 123 124 123 0
2.420000 31.460000 42.460000 123 124 123 0
2.640000 31.460000 41.800000 123 124 123 0
2.860000 31.460000 43.560000 123 124 123 0
3.080000 31.460000 43.560000 123 124 123 0
3.300000 31.460000 43.560000 122 123 122 0
3.520000 31.460000 43.560000 122 123 122 0
3.740000 31.460000 43.560000 122 123 122 0
3.960000 31.460000 43.560000 123 124 123 0
4.180000 31.460000 42.460000 123 124 123 0
4.400000 31.460000 43.560000 123 124 123 0
4.620000 31.460000 43.560000 125 126 125 0
4.840000 31.460000 2.200000 127 128 127 0
5.060000 31.460000 17.600000 130 131 130 0
5.280000 31.460000 30.800000 133 134 133 0
5.500000 31.460000 30.800000 134 135 134 0
5.720000 31.460000 30.580000 135 136 135 0
5.940000 31.460000 30.360000 133 134 133 0
6.160000 31.460000 30.360000 133 134 133 0
6.380000 31.460000 30.360000 132 133 132 0
6.600000 31.460000 30.140000 132 133 132 0
6.820000 31.460000 30.140000 131 132 131 0
7.040000 31.460000 29.920000 131 132 131 0
7.260000 31.460000 29.920000 131 132 131 0
7.480000 31.460000 29.920000 130 131 130 0
7.700000 31.460000 29.700000 130 131 130 0
7.920000 31.460000 29.700000 131 132 131 0
8.140000 31.460000 29.480000 132 133 132 0
8.360000 31.460000 29.480000 131 132 131 0
8.580000 31.460000 29.260000 131 132 131 0
8.800000 31.460000 29.040000 131 132 131 0
9.020000 31.460000 29.040000 132 133 132 0
9.240000 31.460000 28.820000 133 134 133 0
9.460000 31.460000 28.600000 133 134 133 0
9.680000 31.460000 43.560000 134 135 134 0
9.900000 31.460000 43.560000 135 136 135 0
10.120000 31.460000 43.560000 136 137 136 0
10.340000 31.460000 43.560000 139 140 139 0
10.560000 31.460000 43.560000 140 141 140 0
10.780000 31.460000 43.560000 141 142 141 0
11.000000 31.460000 43.560000 143 144 143 0
11.220000 31.460000 43.560000 145 146 145 0
11.440000 31.460000 43.560000 149 150 149 0
11.660000 31.460000 43.560000 153 154 153 0
11.880000 31.460000 43.560000 156 157 156 0
12.100000 31.460000 43.560000 161 162 161 0
12.320000 31.460000 43.560000 165 166 165 0
12.540000 31.460000 43.560000 169 170 169 0
12.760000 31.460000 43.560000 173 174 173 0
12.980000 31.460000 43.560000 176 177 176 0
13.200000 31.460000 43.560000 184 185 184 0
13.420000 31.460000 43.560000 191 192 191 0
13.640000 31.460000 43.560000 198 199 198 0
13.860000 31.460000 38.720000 204 205 204 0
14.080000 31.460000 38.280000 216 217 216 0
14.300000 31.460000 37.840000 224 225 224 0
14.520000 31.460000 37.840000 238 239 238 0
14.740000 31.460000 37.400000 235 236 235 0
14.960000 31.460000 37.400000 226 227 226 0
15.180000 31.460000 37.180000 228 229 228 0
15.400000 31.460000 37.180000 232 233 232 0
15.620000 31.460000 36.960000 236 237 236 0
15.840000 31.460000 36.740000 238 239 238 0
16.060000 31.460000 36.740000 236 237 236 0
16.280000 31.460000 36.520000 237 238 237 0
16.500000 31.460000 36.520000 237 238 237 0
16.720000 31.460000 36.300000 236 237 236 0
16.940000 31.460000 36.300000 236 237 236 0
17.160000 31.460000 36.300000 236 237 236 0
17.380000 31.460000 36.080000 237 238 237 0
17.600000 31.460000 36.080000 238 239 238 0
17.820000 31.460000 35.860000 238 239 238 0
18.040000 31.460000 35.860000 239 240 239 0
18.260000 31.460000 35.860000 239 240 239 0
18.480000 31.460000 35.640000 238 239 238 0
18.700000 31.460000 35.640000 235 236 235 0
18.920000 31.460000 35.420000 234 235 234 0
19.140000 31.460000 35.420000 234 235 234 0
19.360000 31.460000 35.420000 235 236 235 0
19.580000 31.460000 35.200000 235 236 235 0
19.800000 31.460000 35.200000 236 237 236 0
20.020000 31.460000 34.980000 237 238 237 0
20.240000 31.460000 34.980000 235 236 235 0
20.460000 31.460000 34.760000 235 236 235 0
20.680000 31.460000 34.760000 234 235 234 0
20.900000 31.460000 34.760000 233 234 233 0
21.120000 31.460000 34.540000 231 232 231 0
21.340000 31.460000 34.540000 230 231 230 0
21.560000 31.460000 34.320000 229 230 229 0
21.780000 31.460000 34.320000 229 230 229 0
22.000000 31.460000 34.100000 229 230 229 0
22.220000 31.460000 34.100000 228 229 228 0
22.440000 31.460000 34.100000 227 228 227 0
22.660000 31.460000 33.880000 225 226 225 0
22.880000 31.460000 33.880000 224 225 224 0
23.100000 31.460000 33.660000 223 224 223 0
23.320000 31.460000 33.660000 221 222 221 0
23.540000 31.460000 33.660000 219 220 219 0
23.760000 31.460000 33.660000 218 219 218 0
23.980000 31.460000 33.440000 215 216 215 0
24.200000 31.460000 33.440000 214 215 214 0
24.420000 31.460000 33.440000 211 212 211 0
24.640000 31.460000 33.220000 209 210 209 0
24.860000 31.460000 33.220000 206 207 206 0
25.080000 31.460000 33.220000 205 206 205 0
25.300000 31.460000 33.220000 203 204 203 0
25.520000 31.460000 33.000000 201 202 201 0
25.740000 31.460000 33.000000 197 198 197 0
25.960000 31.460000 33.000000 195 196 195 0
26.180000 31.460000 32.780000 192 193 192 0
26.400000 31.460000 32.780000 191 192 191 0
26.620000 31.460000 32.780000 187 188 187 0
26.840000 31.460000 32.780000 186 187 186 0
27.060000 31.460000 32.560000 183 184 183 0
27.280000 31.460000 32.560000 181 182 181 0
27.500000 31.460000 32.560000 178 179 178 0
